-9999 -9999 -9999 -9999 -9999 -9999 -9999 -9999 -9999 -9999 -9999 -9999 -9999 -9999 -9999 -9999 -9999 -9999 -9999 -9999 -9999 -9999 -9999 -9999 -9999 -9999 -9999 -9999 -9999 -9999 -9999 -9999 -9999 -9999 -9999 -9999 -9999 -9999 -9999 -9999 0.1994638 0.166756 0.1479893 0.1544236 0.1345845 0.1383378 0.1201072 0.1302949 0.1351206 0.1190348 0.1034853 0.08150134 0.09758713 0.1260054 0.1286863 0.1281501 0.1324397 0.1367292 0.1587131 0.1689008 0.1533512 0.108311 0.1013405 0.1104558 0.1029491 0.1045576 0.1029491 0.1174263 0.1297587 0.1243968 0.150134 0.141555 0.1485255 0.138874 0.1538874 0.1892761 0.2643432 0.3672922 0.2911528 0.2327078 0.297051 0.3109919 0.324933 0.3801609 0.3828418 0.369437 0.324933 0.3463807 0.2477212 0.341555 0.29437 0.2798928 0.3372654 0.3024129 0.2246649 0.2396783 0.3276139 0.3072386 0.2348526 0.1882038 0.1806971 0.1774799 0.2010724 0.2450402 0.30563 0.2552279 0.1849866 0.1651475 0.141555 0.1742627 0.1517426 0.1308311 0.1077748 0.1067024 0.1131367 0.1072386 0.1142091 0.1147453 0.1356568 0.1737265 0.1823056 0.1699732 0.1308311 0.1329759 0.1495979 0.1619303 0.1764075 0.1404826 0.1399464 0.1624665 0.1399464 0.138874 0.1302949 0.1544236 0.2 0.1887399 0.1420912 0.1104558 0.1067024 0.1061662 0.1319035 0.1624665 0.1265416 0.1689008 0.1646113 0.1544236 0.1849866 0.2627346 0.2128686 0.2075067 0.2772118 0.2884718 0.2959785 0.2702413 0.29437 0.2975871 0.2675603 0.2493298 0.2016086 0.1715818 0.1238606 0.1217158 0.1211796 0.1077748 0.110992 0.1592493 0.1576408 0.1903485 0.2069705 0.2058981 0.2691689 0.1549598 0.1034853 0.1512064 0.1571046 0.1801609 0.1512064 0.1061662 0.09436997 0.08257373 0.08042896 0.07989276 0.08257373 0.08042896 0.07935657 0.07935657 0.07882038 0.07828418 0.07882038 0.07828418 0.08042896 0.07613941 0.07989276 0.07935657 0.07882038 0.07882038 0.07774799 0.07828418 0.07935657 0.08042896 0.07935657 0.07935657 0.07882038 0.07882038 0.07828418 0.07882038 0.07882038 0.07828418 0.07882038 0.07882038 0.07774799 0.07882038 0.09705094 0.08525469 0.0772118 0.08203753 0.1034853 0.07828418 0.07935657 0.0772118 0.07613941 0.0772118 0.07613941 0.07613941 0.07613941 0.07613941 0.07613941 0.07613941 0.08203753 0.07774799 0.08310992 0.08042896 0.07828418 0.08042896 0.07774799 0.07828418 0.07882038 0.08042896 0.08418231 0.09061662 0.1410188 0.1404826 0.09597855 0.124933 0.1978552 0.1742627 0.2182306 0.1801609 0.1613941 0.1544236 0.1420912 0.1404826 0.141555 0.1469169 0.1276139 0.1367292 0.1426273 0.1613941 0.1458445 0.1597855 0.1635389 0.1619303 0.1774799 0.2176944 0.1142091 0.1678284 0.1581769 0.1131367 0.1179625 0.1356568 0.1313673 0.1067024 0.08632708 0.08686327 0.08632708 0.08418231 0.08686327 0.08096515 0.08042896 0.08364611 0.08257373 0.07989276 0.08042896 0.07774799 0.08257373 0.08257373 0.08900804 0.08632708 0.08150134 0.08739946 0.08042896 0.07935657 0.07828418 0.07882038 0.07882038 0.07882038 0.08364611 0.08579089 0.08096515 0.08150134 0.08203753 0.08096515 0.08096515 0.08203753 0.0847185 0.0847185 0.08364611 0.08364611 0.08418231 0.08418231 0.08364611 0.08257373 0.08257373 0.08257373 0.0927614 0.09008043 0.08579089 0.08150134 0.08150134 0.08096515 0.08525469 0.08579089 0.1040214 0.1367292 0.1522788 0.1839142 0.2058981 0.2482574 0.2128686 0.1367292 0.122252 0.1163539 0.1281501 0.09597855 0.08525469 0.08900804 0.09168901 0.08632708 0.08739946 0.08525469 0.08579089 0.08900804 0.09436997 0.1297587 0.1115282 0.09597855 0.08632708 0.08203753 0.08150134 0.08310992 0.1077748 0.0847185 0.08579089 0.08364611 0.08418231 0.08418231 0.0847185 0.0847185 0.08525469 0.08525469 0.08418231 0.08364611 0.08257373 0.08364611 0.08203753 0.08364611 0.08579089 0.0847185 0.08793566 0.1045576 0.0927614 0.08847185 0.09061662 0.09651475 0.1029491 0.1345845 0.1426273 0.1265416 0.1592493 0.1061662 0.1495979 0.1479893 0.1013405 0.1206434 0.1426273 0.2284182 0.2450402 0.2016086 0.2938338 0.2343163 0.2477212 0.2981233
-9999 -9999 -9999 -9999 -9999 -9999 -9999 -9999 -9999 -9999 -9999 -9999 -9999 -9999 -9999 -9999 -9999 -9999 -9999 -9999 -9999 -9999 -9999 -9999 -9999 -9999 -9999 -9999 -9999 -9999 -9999 -9999 -9999 -9999 -9999 -9999 -9999 -9999 -9999 -9999 0.2064343 0.1865952 0.1747989 0.1581769 0.1678284 0.1453083 0.1785523 0.1737265 0.1672922 0.1340483 0.1147453 0.07560322 0.09061662 0.1152815 0.1431635 0.108311 0.1506702 0.1512064 0.1383378 0.1512064 0.1168901 0.1099196 0.1104558 0.1485255 0.108311 0.1120643 0.1227882 0.1227882 0.1233244 0.1324397 0.1785523 0.1404826 0.1517426 0.1560322 0.1951743 0.3029491 0.4262735 0.4101877 0.3276139 0.2101877 0.2337802 0.2691689 0.3152815 0.427882 0.3823056 0.3136729 0.2616622 0.233244 0.2525469 0.202681 0.2117963 0.1823056 0.1678284 0.2112601 0.2219839 0.1876676 0.219303 0.2477212 0.2230563 0.1892761 0.155496 0.2150134 0.227882 0.2632708 0.3093834 0.2664879 0.2069705 0.1785523 0.1576408 0.1324397 0.1630027 0.110992 0.1576408 0.122252 0.1029491 0.1024129 0.1238606 0.1243968 0.1324397 0.1286863 0.1458445 0.1571046 0.1281501 0.1260054 0.1378016 0.1286863 0.1372654 0.1372654 0.1592493 0.1517426 0.1780161 0.1308311 0.1624665 0.1876676 0.2010724 0.1490617 0.1211796 0.1201072 0.1217158 0.1088472 0.1297587 0.1319035 0.1238606 0.1592493 0.1243968 0.1286863 0.1458445 0.1678284 0.1587131 0.2048257 0.2369973 0.230563 0.3120643 0.413941 0.4680965 0.4048257 0.3040214 0.2632708 0.2573726 0.1576408 0.1506702 0.1495979 0.1469169 0.1705094 0.1538874 0.1796247 0.1731904 0.2230563 0.2772118 0.3613941 0.350134 0.2825737 0.119571 0.2032172 0.2021448 0.1560322 0.1190348 0.08042896 0.08096515 0.08096515 0.08042896 0.08096515 0.08042896 0.07935657 0.07882038 0.07935657 0.07935657 0.07935657 0.07828418 0.07935657 0.08042896 0.0772118 0.07935657 0.08042896 0.07882038 0.07935657 0.07935657 0.07989276 0.0847185 0.08364611 0.08525469 0.07828418 0.07882038 0.08310992 0.08150134 0.08042896 0.08203753 0.07882038 0.07935657 0.07828418 0.07774799 0.07828418 0.1050938 0.1560322 0.0772118 0.08042896 0.09544236 0.08525469 0.0772118 0.0772118 0.0772118 0.07613941 0.07613941 0.07613941 0.07613941 0.07613941 0.07560322 0.07613941 0.07882038 0.07613941 0.07935657 0.08203753 0.0772118 0.08150134 0.07989276 0.07935657 0.07882038 0.08042896 0.09168901 0.1190348 0.1517426 0.09919571 0.09919571 0.1453083 0.1313673 0.1506702 0.183378 0.1774799 0.1517426 0.1549598 0.1522788 0.1581769 0.1286863 0.1126005 0.1522788 0.1335121 0.1613941 0.1672922 0.1758713 0.1731904 0.1914209 0.1351206 0.1308311 0.197319 0.1576408 0.166756 0.1297587 0.1126005 0.1050938 0.1088472 0.1238606 0.1640751 0.09329759 0.08579089 0.09061662 0.09383378 0.08900804 0.08203753 0.07828418 0.07828418 0.07774799 0.07828418 0.0772118 0.07774799 0.07989276 0.08150134 0.08203753 0.08739946 0.08686327 0.08096515 0.07828418 0.07828418 0.07828418 0.07828418 0.08203753 0.07774799 0.07828418 0.07935657 0.07935657 0.08096515 0.08096515 0.08042896 0.07989276 0.07989276 0.08203753 0.08203753 0.08203753 0.08203753 0.08203753 0.08257373 0.08150134 0.08042896 0.08096515 0.08203753 0.08847185 0.08847185 0.09490617 0.0927614 0.08150134 0.08257373 0.08257373 0.09490617 0.0922252 0.09865952 0.1184987 0.1892761 0.2369973 0.2782842 0.1930295 0.1302949 0.1174263 0.0927614 0.1206434 0.1678284 0.1077748 0.08954424 0.08203753 0.08418231 0.08525469 0.08364611 0.09115282 0.09061662 0.1018767 0.1174263 0.1404826 0.1072386 0.09490617 0.08150134 0.08418231 0.08310992 0.08257373 0.0847185 0.08686327 0.0847185 0.08418231 0.08418231 0.08042896 0.0847185 0.08418231 0.08364611 0.08579089 0.08579089 0.08257373 0.08632708 0.08579089 0.08418231 0.08418231 0.08525469 0.08418231 0.08525469 0.08632708 0.09168901 0.1061662 0.1158177 0.1367292 0.1227882 0.1206434 0.1211796 0.1002681 0.09705094 0.1104558 0.1276139 0.09812333 0.1072386 0.1560322 0.2536193 0.1624665 0.1823056 0.2284182 0.1710456 0.2123324 0.3324397
-9999 -9999 -9999 -9999 -9999 -9999 -9999 -9999 -9999 -9999 -9999 -9999 -9999 -9999 -9999 -9999 -9999 -9999 -9999 -9999 -9999 -9999 -9999 -9999 -9999 -9999 -9999 -9999 -9999 -9999 -9999 -9999 -9999 -9999 -9999 -9999 -9999 -9999 -9999 0.2423593 0.2230563 0.1983914 0.1908847 0.1839142 0.1855228 0.1946381 0.1946381 0.2198391 0.2198391 0.1469169 0.1211796 0.0997319 0.08579089 0.1152815 0.1142091 0.1002681 0.1190348 0.1715818 0.1903485 0.1571046 0.1265416 0.1206434 0.1780161 0.2155496 0.1378016 0.1136729 0.122252 0.119571 0.1512064 0.1356568 0.2975871 0.1463807 0.1592493 0.1764075 0.186059 0.3839142 0.4509383 0.386059 0.2273458 0.2010724 0.247185 0.2680965 0.3587132 0.4112601 0.3565684 0.2075067 0.2300268 0.1994638 0.2284182 0.1769437 0.1646113 0.1699732 0.1689008 0.1436997 0.1512064 0.1924933 0.172118 0.2364611 0.1882038 0.1565684 0.1656836 0.1983914 0.3067024 0.2128686 0.2343163 0.2241287 0.2176944 0.1640751 0.1619303 0.136193 0.1394102 0.1651475 0.1914209 0.1211796 0.09919571 0.1126005 0.1313673 0.1839142 0.1436997 0.1093834 0.1286863 0.1297587 0.1313673 0.1227882 0.1340483 0.1335121 0.1286863 0.1404826 0.1399464 0.166756 0.1453083 0.1823056 0.2284182 0.2353887 0.1817694 0.1399464 0.136193 0.138874 0.1340483 0.1174263 0.1174263 0.1774799 0.2187667 0.1447721 0.1823056 0.172118 0.2037534 0.2504022 0.2230563 0.2702413 0.2600536 0.2911528 0.3512064 0.4546917 0.3689008 0.3378016 0.3533512 0.2359249 0.2461126 0.2032172 0.2310992 0.2434316 0.2107239 0.2466488 0.1689008 0.1801609 0.2155496 0.3399464 0.3324397 0.3490617 0.2761394 0.1839142 0.1479893 0.1260054 0.1619303 0.1024129 0.07989276 0.08042896 0.08096515 0.08096515 0.07989276 0.07882038 0.07882038 0.07935657 0.07882038 0.07828418 0.07935657 0.07828418 0.07828418 0.07989276 0.07828418 0.07882038 0.07935657 0.07989276 0.07989276 0.08310992 0.08793566 0.08203753 0.0847185 0.08042896 0.07882038 0.07882038 0.08150134 0.07989276 0.08042896 0.08364611 0.08632708 0.08096515 0.07828418 0.0772118 0.07828418 0.0772118 0.08632708 0.1163539 0.09865952 0.07613941 0.08686327 0.08364611 0.07613941 0.07828418 0.07613941 0.07613941 0.07613941 0.07560322 0.07613941 0.07613941 0.0772118 0.07613941 0.07613941 0.0772118 0.0772118 0.08042896 0.07774799 0.07935657 0.07935657 0.07828418 0.08042896 0.08310992 0.1184987 0.1587131 0.1378016 0.1142091 0.1431635 0.1597855 0.1367292 0.2246649 0.1705094 0.1436997 0.1463807 0.1512064 0.1608579 0.1796247 0.1581769 0.1329759 0.1067024 0.1404826 0.1399464 0.1152815 0.202681 0.1442359 0.1206434 0.141555 0.1394102 0.1072386 0.1024129 0.09758713 0.1308311 0.1104558 0.09544236 0.09865952 0.152815 0.1790885 0.1908847 0.09061662 0.08739946 0.08954424 0.08364611 0.08739946 0.0847185 0.1115282 0.08954424 0.07828418 0.0772118 0.08096515 0.07882038 0.08203753 0.08096515 0.08793566 0.08364611 0.08150134 0.07935657 0.08203753 0.07828418 0.07935657 0.07828418 0.07774799 0.07774799 0.07828418 0.07935657 0.07935657 0.07989276 0.07989276 0.07882038 0.08042896 0.08042896 0.08096515 0.08150134 0.08096515 0.08096515 0.08150134 0.07989276 0.08150134 0.08793566 0.09008043 0.08793566 0.08525469 0.08096515 0.08257373 0.08042896 0.07989276 0.08096515 0.08793566 0.1243968 0.1882038 0.1828418 0.2718499 0.272386 0.263807 0.1715818 0.1351206 0.1002681 0.1008043 0.110992 0.09705094 0.09705094 0.08364611 0.08096515 0.08364611 0.08632708 0.08310992 0.07828418 0.07774799 0.08418231 0.09008043 0.1152815 0.09597855 0.09008043 0.08096515 0.08686327 0.08364611 0.08310992 0.08310992 0.08793566 0.08418231 0.08364611 0.0847185 0.08096515 0.0847185 0.08418231 0.0847185 0.0847185 0.08525469 0.08418231 0.08793566 0.09329759 0.08418231 0.08418231 0.08418231 0.08418231 0.08579089 0.08793566 0.1436997 0.1726542 0.1898123 0.1903485 0.1490617 0.1147453 0.1158177 0.09383378 0.09436997 0.09383378 0.09705094 0.09651475 0.119571 0.1206434 0.2005362 0.1560322 0.1474531 0.1560322 0.2386059 0.3233244 0.2353887
-9999 -9999 -9999 -9999 -9999 -9999 -9999 -9999 -9999 -9999 -9999 -9999 -9999 -9999 -9999 -9999 -9999 -9999 -9999 -9999 -9999 -9999 -9999 -9999 -9999 -9999 -9999 -9999 -9999 -9999 -9999 -9999 -9999 -9999 -9999 -9999 -9999 -9999 0.2627346 0.2080429 0.1785523 0.1646113 0.1957105 0.1613941 0.1796247 0.1753351 0.1699732 0.2353887 0.1903485 0.1254692 0.1281501 0.09705094 0.07184987 0.1072386 0.1072386 0.09490617 0.1147453 0.1276139 0.1479893 0.1163539 0.1013405 0.1099196 0.1726542 0.1957105 0.2150134 0.1142091 0.1340483 0.1764075 0.2831099 0.2091153 0.2107239 0.3120643 0.230563 0.1705094 0.2857909 0.3662198 0.3147453 0.2450402 0.2058981 0.2128686 0.2793566 0.2321716 0.2675603 0.2766756 0.3093834 0.1994638 0.1839142 0.1957105 0.2252011 0.2252011 0.2225201 0.2670241 0.219303 0.166756 0.152815 0.1372654 0.1769437 0.1871314 0.1796247 0.155496 0.1619303 0.2300268 0.2123324 0.1812332 0.202681 0.2075067 0.2450402 0.2262735 0.2176944 0.1796247 0.202681 0.1844504 0.1898123 0.1345845 0.1024129 0.09758713 0.1099196 0.1506702 0.166756 0.1206434 0.1093834 0.1067024 0.110992 0.1152815 0.1292225 0.1399464 0.1324397 0.1442359 0.1426273 0.155496 0.2203753 0.291689 0.2922252 0.2080429 0.1742627 0.247185 0.1887399 0.1302949 0.1683646 0.2117963 0.2150134 0.1270777 0.1088472 0.1436997 0.1276139 0.138874 0.1758713 0.2477212 0.2906166 0.3313673 0.3442359 0.4042895 0.4075067 0.3876676 0.3463807 0.2766756 0.2986595 0.2461126 0.2198391 0.2455764 0.2230563 0.2975871 0.2230563 0.2643432 0.2214477 0.2520107 0.2932976 0.3158177 0.3436997 0.2310992 0.2632708 0.1812332 0.1683646 0.09329759 0.1260054 0.08042896 0.08042896 0.07935657 0.08042896 0.07989276 0.07935657 0.07882038 0.07935657 0.07935657 0.07935657 0.07828418 0.07882038 0.07935657 0.07882038 0.0772118 0.08150134 0.07935657 0.08579089 0.08257373 0.08525469 0.08954424 0.08739946 0.08739946 0.0847185 0.08042896 0.07774799 0.07828418 0.07882038 0.07989276 0.07989276 0.08310992 0.08257373 0.07989276 0.07828418 0.07828418 0.07774799 0.0772118 0.07828418 0.08042896 0.08096515 0.0772118 0.08042896 0.07774799 0.07828418 0.07828418 0.07613941 0.07613941 0.07613941 0.07613941 0.07613941 0.07613941 0.07613941 0.07774799 0.0772118 0.07613941 0.07935657 0.08042896 0.07774799 0.07935657 0.08150134 0.07989276 0.08364611 0.08954424 0.1040214 0.1179625 0.1008043 0.1131367 0.1887399 0.1801609 0.2423593 0.1404826 0.1179625 0.1560322 0.1442359 0.1624665 0.1957105 0.1549598 0.1217158 0.110992 0.1163539 0.1067024 0.1067024 0.1002681 0.0997319 0.1029491 0.1158177 0.119571 0.1050938 0.0997319 0.1067024 0.09919571 0.1013405 0.09436997 0.09061662 0.09490617 0.1206434 0.2005362 0.2160858 0.1013405 0.09383378 0.08739946 0.0847185 0.09329759 0.08418231 0.09008043 0.08686327 0.07882038 0.0772118 0.07828418 0.0772118 0.08150134 0.07935657 0.08203753 0.08042896 0.07935657 0.07828418 0.07774799 0.07774799 0.07828418 0.07935657 0.07774799 0.07774799 0.0772118 0.07828418 0.07882038 0.07882038 0.07935657 0.07828418 0.07882038 0.07935657 0.08096515 0.08096515 0.07989276 0.07989276 0.07989276 0.07989276 0.08096515 0.08364611 0.0847185 0.08364611 0.08150134 0.07989276 0.08096515 0.07989276 0.08042896 0.08096515 0.08632708 0.1227882 0.1737265 0.1158177 0.1764075 0.1308311 0.1254692 0.1233244 0.09008043 0.08686327 0.08418231 0.0847185 0.08310992 0.09329759 0.08042896 0.0772118 0.07774799 0.07828418 0.09758713 0.1002681 0.1163539 0.09490617 0.07989276 0.08579089 0.08096515 0.08847185 0.08042896 0.08150134 0.0847185 0.08203753 0.08257373 0.08525469 0.08364611 0.08364611 0.08364611 0.08150134 0.0847185 0.0847185 0.0847185 0.08310992 0.08364611 0.08364611 0.08579089 0.08525469 0.09168901 0.08310992 0.08364611 0.08418231 0.08579089 0.08900804 0.110992 0.2155496 0.2428954 0.1683646 0.1490617 0.1126005 0.09329759 0.09061662 0.0922252 0.09383378 0.09544236 0.1034853 0.1270777 0.1050938 0.1099196 0.136193 0.1876676 0.1849866 0.2632708 0.2294906 0.3179625
-9999 -9999 -9999 -9999 -9999 -9999 -9999 -9999 -9999 -9999 -9999 -9999 -9999 -9999 -9999 -9999 -9999 -9999 -9999 -9999 -9999 -9999 -9999 -9999 -9999 -9999 -9999 -9999 -9999 -9999 -9999 -9999 -9999 -9999 -9999 -9999 -9999 -9999 0.2568365 0.2117963 0.169437 0.1329759 0.1662198 0.1742627 0.1351206 0.1522788 0.1313673 0.183378 0.1941019 0.1286863 0.1485255 0.09544236 0.03914209 0.08096515 0.09544236 0.0922252 0.1029491 0.09544236 0.10563 0.1238606 0.141555 0.1254692 0.2273458 0.1801609 0.1506702 0.1126005 0.169437 0.2520107 0.3967828 0.2890081 0.227882 0.2005362 0.1747989 0.2144772 0.2680965 0.3367292 0.341555 0.2691689 0.2294906 0.244504 0.2616622 0.2643432 0.2954424 0.2959785 0.2509383 0.2053619 0.3136729 0.2557641 0.3340483 0.3871314 0.3447721 0.341555 0.2230563 0.1581769 0.1383378 0.1319035 0.1517426 0.1495979 0.2386059 0.166756 0.1812332 0.1689008 0.1678284 0.1930295 0.2364611 0.2734585 0.3050938 0.3351206 0.2621984 0.2766756 0.2702413 0.2101877 0.2182306 0.1313673 0.1120643 0.110992 0.09758713 0.1104558 0.1276139 0.1029491 0.119571 0.1179625 0.124933 0.1324397 0.1281501 0.1238606 0.1297587 0.1538874 0.2064343 0.1898123 0.2112601 0.2600536 0.2187667 0.2096515 0.3104558 0.2209115 0.1640751 0.1780161 0.1619303 0.1731904 0.2037534 0.09758713 0.1136729 0.1126005 0.1420912 0.1839142 0.1946381 0.2042895 0.2498659 0.3174263 0.3211796 0.3962466 0.3597855 0.3104558 0.2986595 0.2300268 0.2680965 0.2268097 0.1839142 0.1565684 0.2482574 0.2868633 0.3104558 0.3040214 0.3243968 0.3104558 0.2423593 0.308311 0.2911528 0.2364611 0.1426273 0.2037534 0.1077748 0.08418231 0.07935657 0.07989276 0.08042896 0.07935657 0.08042896 0.08203753 0.07882038 0.08042896 0.07989276 0.07989276 0.07882038 0.07935657 0.07935657 0.07935657 0.07613941 0.08042896 0.08579089 0.08847185 0.08847185 0.08739946 0.08686327 0.08203753 0.08632708 0.08579089 0.08632708 0.07882038 0.0772118 0.07882038 0.07828418 0.07828418 0.07935657 0.08203753 0.08150134 0.08203753 0.08364611 0.0772118 0.0772118 0.07828418 0.07774799 0.07882038 0.07774799 0.07613941 0.07613941 0.0772118 0.07613941 0.07613941 0.07613941 0.07613941 0.07560322 0.07774799 0.07613941 0.07613941 0.07560322 0.0772118 0.07613941 0.0772118 0.07560322 0.07613941 0.0772118 0.07828418 0.08203753 0.08150134 0.08364611 0.09383378 0.122252 0.09705094 0.1002681 0.1436997 0.1689008 0.1163539 0.1174263 0.1029491 0.1892761 0.1892761 0.166756 0.1619303 0.2048257 0.1962467 0.1469169 0.1276139 0.1356568 0.1217158 0.09705094 0.1067024 0.1040214 0.1158177 0.1131367 0.1024129 0.09597855 0.1018767 0.1115282 0.1024129 0.09383378 0.08847185 0.08632708 0.09008043 0.1024129 0.1329759 0.09812333 0.08579089 0.08257373 0.09758713 0.08954424 0.08900804 0.08418231 0.08203753 0.08686327 0.08257373 0.0772118 0.07882038 0.07774799 0.07828418 0.08310992 0.08096515 0.08042896 0.07774799 0.07774799 0.0772118 0.0772118 0.07882038 0.07882038 0.07882038 0.0772118 0.0772118 0.07774799 0.07774799 0.07774799 0.07882038 0.07828418 0.07774799 0.07882038 0.07989276 0.07989276 0.07935657 0.07989276 0.07828418 0.07882038 0.07882038 0.08096515 0.07935657 0.08203753 0.08257373 0.08150134 0.07989276 0.08203753 0.08042896 0.09168901 0.08632708 0.08579089 0.0847185 0.08686327 0.09061662 0.08847185 0.08632708 0.08579089 0.09008043 0.08579089 0.08257373 0.08150134 0.08203753 0.08150134 0.0772118 0.08310992 0.08310992 0.08203753 0.1190348 0.1469169 0.1308311 0.1206434 0.1088472 0.09383378 0.07989276 0.08257373 0.08310992 0.08579089 0.08096515 0.0847185 0.08793566 0.08525469 0.0847185 0.08418231 0.08525469 0.08364611 0.08525469 0.0847185 0.08364611 0.08310992 0.1077748 0.0922252 0.08525469 0.08364611 0.09383378 0.08579089 0.08364611 0.08364611 0.08579089 0.09329759 0.1190348 0.2075067 0.2439678 0.1442359 0.1254692 0.1206434 0.0927614 0.09061662 0.09115282 0.0922252 0.09168901 0.09544236 0.0997319 0.1297587 0.1040214 0.1136729 0.1640751 0.2809651 0.3045577 0.227882 0.2493298
-9999 -9999 -9999 -9999 -9999 -9999 -9999 -9999 -9999 -9999 -9999 -9999 -9999 -9999 -9999 -9999 -9999 -9999 -9999 -9999 -9999 -9999 -9999 -9999 -9999 -9999 -9999 -9999 -9999 -9999 -9999 -9999 -9999 -9999 -9999 -9999 -9999 0.3045577 0.2477212 0.1774799 0.166756 0.1367292 0.1211796 0.1313673 0.119571 0.1292225 0.1335121 0.1136729 0.1115282 0.1126005 0.1174263 0.09919571 0.0616622 0.0772118 0.08686327 0.1013405 0.08900804 0.08900804 0.08793566 0.09436997 0.1147453 0.1404826 0.1292225 0.136193 0.119571 0.1281501 0.2536193 0.3930295 0.3420911 0.2294906 0.2021448 0.2080429 0.1747989 0.2 0.3372654 0.3458445 0.4171582 0.3442359 0.2117963 0.2809651 0.2310992 0.3372654 0.2659518 0.197319 0.1828418 0.2509383 0.3324397 0.2509383 0.2219839 0.1967828 0.1903485 0.3002681 0.1828418 0.2219839 0.2182306 0.1286863 0.138874 0.1378016 0.1581769 0.1383378 0.150134 0.1436997 0.1817694 0.2670241 0.2975871 0.272386 0.3243968 0.3640751 0.2836461 0.2294906 0.2235925 0.2107239 0.2058981 0.1324397 0.1238606 0.1077748 0.1072386 0.09919571 0.108311 0.1002681 0.1093834 0.1297587 0.1538874 0.1201072 0.119571 0.1490617 0.1302949 0.1635389 0.2187667 0.2155496 0.1898123 0.1689008 0.1646113 0.2284182 0.172118 0.1672922 0.1479893 0.1270777 0.1865952 0.1420912 0.1142091 0.1131367 0.1190348 0.1394102 0.1941019 0.2209115 0.1983914 0.1871314 0.2498659 0.352815 0.3924933 0.3726542 0.2868633 0.2766756 0.2798928 0.2493298 0.1876676 0.2069705 0.1512064 0.1420912 0.1855228 0.3394102 0.2756032 0.3034852 0.3378016 0.2487936 0.2804289 0.169437 0.1592493 0.1479893 0.2075067 0.08525469 0.08257373 0.07989276 0.07935657 0.07828418 0.07935657 0.07882038 0.07935657 0.07882038 0.07935657 0.07989276 0.07882038 0.07828418 0.07935657 0.07882038 0.07935657 0.07828418 0.07935657 0.08739946 0.08632708 0.08793566 0.08739946 0.07989276 0.08418231 0.08096515 0.08525469 0.08096515 0.08096515 0.07828418 0.0772118 0.07828418 0.07882038 0.08579089 0.08900804 0.08686327 0.08096515 0.07828418 0.08257373 0.07935657 0.07774799 0.07613941 0.07613941 0.07882038 0.07935657 0.0772118 0.07613941 0.07613941 0.07613941 0.0772118 0.07613941 0.07560322 0.07560322 0.07560322 0.07613941 0.07560322 0.07613941 0.07828418 0.0772118 0.07882038 0.07613941 0.0772118 0.07613941 0.08150134 0.07989276 0.08150134 0.0847185 0.1002681 0.09436997 0.1002681 0.1184987 0.1211796 0.1747989 0.09544236 0.0922252 0.09383378 0.1067024 0.1946381 0.172118 0.09812333 0.1367292 0.1630027 0.1635389 0.1297587 0.1018767 0.1201072 0.09115282 0.1061662 0.1329759 0.1581769 0.1619303 0.1876676 0.1034853 0.09705094 0.0927614 0.09168901 0.08954424 0.0927614 0.09061662 0.08579089 0.08632708 0.08579089 0.08203753 0.08525469 0.09651475 0.08579089 0.08525469 0.08686327 0.08793566 0.07935657 0.08418231 0.0772118 0.07613941 0.07774799 0.07989276 0.0772118 0.07882038 0.08310992 0.07828418 0.0772118 0.07774799 0.0772118 0.07882038 0.0772118 0.0772118 0.07774799 0.07774799 0.0772118 0.0772118 0.07774799 0.0772118 0.0772118 0.07935657 0.07774799 0.07774799 0.07828418 0.07828418 0.07989276 0.07882038 0.07828418 0.07828418 0.08042896 0.08203753 0.08203753 0.07935657 0.08042896 0.08257373 0.07989276 0.08096515 0.07935657 0.07989276 0.07882038 0.07935657 0.08096515 0.08525469 0.09008043 0.08686327 0.08418231 0.08257373 0.08525469 0.08364611 0.08310992 0.08739946 0.08525469 0.0772118 0.08203753 0.08096515 0.08150134 0.08364611 0.110992 0.1806971 0.1597855 0.1324397 0.1061662 0.08686327 0.08096515 0.08096515 0.09919571 0.1029491 0.0927614 0.08686327 0.09115282 0.09490617 0.08686327 0.08632708 0.08310992 0.08418231 0.0847185 0.08364611 0.08310992 0.08364611 0.08793566 0.08739946 0.08525469 0.0847185 0.108311 0.09436997 0.08418231 0.08364611 0.08364611 0.09061662 0.1335121 0.2112601 0.1844504 0.1785523 0.1179625 0.1050938 0.08900804 0.08954424 0.09061662 0.0922252 0.09597855 0.1174263 0.1453083 0.136193 0.1158177 0.1120643 0.1576408 0.202681 0.2573726 0.1823056 0.1608579
-9999 -9999 -9999 -9999 -9999 -9999 -9999 -9999 -9999 -9999 -9999 -9999 -9999 -9999 -9999 -9999 -9999 -9999 -9999 -9999 -9999 -9999 -9999 -9999 -9999 -9999 -9999 -9999 -9999 -9999 -9999 -9999 -9999 -9999 -9999 -9999 -9999 0.2697051 0.2230563 0.2241287 0.1823056 0.1227882 0.119571 0.1077748 0.1126005 0.1201072 0.1179625 0.1072386 0.1045576 0.1206434 0.09651475 0.1126005 0.09597855 0.09383378 0.06541555 0.09597855 0.1067024 0.1206434 0.1147453 0.09812333 0.10563 0.1077748 0.1201072 0.1115282 0.1469169 0.150134 0.2407507 0.3394102 0.2530831 0.2080429 0.1983914 0.1839142 0.1479893 0.1924933 0.2214477 0.2702413 0.3576407 0.2632708 0.1946381 0.2310992 0.2836461 0.2563003 0.1844504 0.1533512 0.2075067 0.2386059 0.219303 0.1699732 0.1506702 0.1302949 0.1383378 0.1587131 0.261126 0.1898123 0.1672922 0.1238606 0.1431635 0.1335121 0.1313673 0.1206434 0.1731904 0.1640751 0.1640751 0.1930295 0.2064343 0.3163539 0.3297587 0.2134048 0.1892761 0.1710456 0.2021448 0.2032172 0.1490617 0.1227882 0.1168901 0.1024129 0.1093834 0.1447721 0.09436997 0.1088472 0.1045576 0.1115282 0.1217158 0.1292225 0.1131367 0.1168901 0.1201072 0.1780161 0.2793566 0.2214477 0.183378 0.2375335 0.1983914 0.1201072 0.2010724 0.2048257 0.1302949 0.1372654 0.1126005 0.09490617 0.09436997 0.1243968 0.1758713 0.1656836 0.2032172 0.2428954 0.3024129 0.2493298 0.2686327 0.291689 0.2857909 0.2509383 0.197319 0.1957105 0.1914209 0.1989276 0.2273458 0.1908847 0.1340483 0.1335121 0.219303 0.2117963 0.2959785 0.3008043 0.3887399 0.2852547 0.2010724 0.2069705 0.141555 0.1131367 0.08203753 0.07989276 0.07882038 0.07935657 0.07882038 0.07828418 0.07828418 0.07882038 0.07882038 0.07935657 0.07989276 0.08150134 0.07882038 0.07828418 0.07882038 0.07828418 0.07935657 0.07882038 0.08418231 0.09008043 0.09490617 0.09168901 0.08847185 0.08418231 0.08364611 0.07989276 0.0772118 0.07882038 0.07882038 0.07774799 0.07774799 0.0772118 0.07882038 0.07882038 0.07935657 0.07935657 0.0772118 0.07935657 0.08096515 0.07774799 0.0772118 0.07613941 0.07613941 0.0772118 0.07989276 0.07774799 0.07989276 0.07613941 0.07613941 0.0772118 0.0772118 0.0772118 0.07613941 0.07613941 0.07613941 0.07613941 0.07560322 0.07613941 0.0772118 0.07828418 0.08096515 0.07613941 0.07774799 0.08096515 0.08525469 0.0847185 0.0927614 0.1485255 0.1211796 0.09597855 0.1034853 0.1061662 0.1646113 0.1158177 0.0922252 0.09812333 0.09812333 0.1206434 0.1683646 0.1077748 0.09329759 0.09758713 0.1077748 0.1050938 0.1404826 0.09490617 0.09168901 0.08900804 0.09597855 0.1254692 0.119571 0.1136729 0.1587131 0.1008043 0.0922252 0.09329759 0.08632708 0.08310992 0.1029491 0.09490617 0.08310992 0.0847185 0.07989276 0.07882038 0.08364611 0.08954424 0.08686327 0.08203753 0.08150134 0.07989276 0.07613941 0.07560322 0.07774799 0.07882038 0.0772118 0.0772118 0.0772118 0.07828418 0.07828418 0.0772118 0.0772118 0.07774799 0.07774799 0.07774799 0.07828418 0.0772118 0.07560322 0.0772118 0.07774799 0.07774799 0.07828418 0.07774799 0.07828418 0.07828418 0.07828418 0.07828418 0.07774799 0.07882038 0.07882038 0.07882038 0.07828418 0.07882038 0.07882038 0.07935657 0.07882038 0.07935657 0.07935657 0.07882038 0.07935657 0.07989276 0.07882038 0.07828418 0.07828418 0.08203753 0.09168901 0.09329759 0.09008043 0.09705094 0.0847185 0.08686327 0.08257373 0.0927614 0.1179625 0.08900804 0.08042896 0.08150134 0.08364611 0.1276139 0.1050938 0.1458445 0.2085791 0.1190348 0.1211796 0.1345845 0.1308311 0.1174263 0.1329759 0.124933 0.1029491 0.08847185 0.08257373 0.08847185 0.09115282 0.08954424 0.08579089 0.08418231 0.0847185 0.08257373 0.08310992 0.08310992 0.08364611 0.08954424 0.08418231 0.08632708 0.1013405 0.09758713 0.09544236 0.08364611 0.08418231 0.08418231 0.09436997 0.1335121 0.1077748 0.1115282 0.1651475 0.1372654 0.08900804 0.08900804 0.09008043 0.09115282 0.0927614 0.1104558 0.1410188 0.1576408 0.1115282 0.1077748 0.1442359 0.1174263 0.2230563 0.2064343 0.1876676 0.1774799
-9999 -9999 -9999 -9999 -9999 -9999 -9999 -9999 -9999 -9999 -9999 -9999 -9999 -9999 -9999 -9999 -9999 -9999 -9999 -9999 -9999 -9999 -9999 -9999 -9999 -9999 -9999 -9999 -9999 -9999 -9999 -9999 -9999 -9999 -9999 -9999 -9999 0.2857909 0.2171582 0.1699732 0.1485255 0.1297587 0.1201072 0.1115282 0.1072386 0.1099196 0.1276139 0.1067024 0.1050938 0.1034853 0.110992 0.1040214 0.09168901 0.1002681 0.09919571 0.0772118 0.09651475 0.1592493 0.1367292 0.1217158 0.1217158 0.1158177 0.136193 0.1399464 0.1871314 0.172118 0.197319 0.272386 0.2032172 0.1764075 0.2198391 0.227882 0.155496 0.1758713 0.2262735 0.2380697 0.2954424 0.2423593 0.1742627 0.2053619 0.2230563 0.2605898 0.2359249 0.1410188 0.1903485 0.1887399 0.1490617 0.1479893 0.1297587 0.1147453 0.1265416 0.1372654 0.1281501 0.1565684 0.1544236 0.1260054 0.1367292 0.1565684 0.1297587 0.1774799 0.1404826 0.1597855 0.1924933 0.2418231 0.2563003 0.2198391 0.2187667 0.1865952 0.1941019 0.1683646 0.150134 0.1485255 0.1485255 0.1163539 0.1088472 0.1088472 0.1190348 0.1190348 0.1029491 0.0997319 0.1120643 0.1302949 0.1243968 0.1115282 0.1163539 0.1281501 0.1436997 0.1635389 0.2552279 0.2310992 0.2788204 0.2788204 0.1517426 0.1077748 0.166756 0.1356568 0.1126005 0.1168901 0.1115282 0.110992 0.119571 0.119571 0.1646113 0.2150134 0.2123324 0.2675603 0.3436997 0.3683646 0.3592493 0.4193029 0.4348525 0.3394102 0.2616622 0.2782842 0.2793566 0.2927614 0.2927614 0.2868633 0.230563 0.1136729 0.1436997 0.1699732 0.2203753 0.3142091 0.3340483 0.2477212 0.2396783 0.1190348 0.09705094 0.08096515 0.07989276 0.07882038 0.07882038 0.07828418 0.07828418 0.07882038 0.07828418 0.07828418 0.08096515 0.08632708 0.07935657 0.07828418 0.07774799 0.07989276 0.07828418 0.07828418 0.07935657 0.08150134 0.08579089 0.0922252 0.09651475 0.09436997 0.08257373 0.08310992 0.07828418 0.0772118 0.07774799 0.07828418 0.07828418 0.07774799 0.07774799 0.07828418 0.07828418 0.07774799 0.07774799 0.0772118 0.0772118 0.07613941 0.0772118 0.07774799 0.07774799 0.0772118 0.07774799 0.0772118 0.07774799 0.07613941 0.07882038 0.07613941 0.0772118 0.07613941 0.07613941 0.0772118 0.07613941 0.07560322 0.07560322 0.07613941 0.07774799 0.07882038 0.07560322 0.0772118 0.08150134 0.07882038 0.08364611 0.08042896 0.08096515 0.08579089 0.09544236 0.1050938 0.1592493 0.09651475 0.09758713 0.1227882 0.1436997 0.09490617 0.08954424 0.0997319 0.1040214 0.1050938 0.09758713 0.1270777 0.1072386 0.09168901 0.09865952 0.1635389 0.1619303 0.09812333 0.1093834 0.09008043 0.09436997 0.08900804 0.09168901 0.09812333 0.1903485 0.1849866 0.1152815 0.1335121 0.09758713 0.08686327 0.08900804 0.08525469 0.07989276 0.09490617 0.08096515 0.07774799 0.07828418 0.07774799 0.07882038 0.07774799 0.07828418 0.07989276 0.07828418 0.08042896 0.07882038 0.07613941 0.07613941 0.07613941 0.0772118 0.07882038 0.07774799 0.07774799 0.0772118 0.07774799 0.07828418 0.07828418 0.07774799 0.07828418 0.08042896 0.07828418 0.07774799 0.07774799 0.07774799 0.0772118 0.07828418 0.07828418 0.07828418 0.07774799 0.07828418 0.07828418 0.07882038 0.07882038 0.07882038 0.07828418 0.07882038 0.07828418 0.07935657 0.07882038 0.07935657 0.07882038 0.07882038 0.07935657 0.07935657 0.08096515 0.08042896 0.08418231 0.08203753 0.08954424 0.08257373 0.09168901 0.108311 0.1045576 0.08096515 0.1002681 0.08847185 0.08096515 0.08203753 0.1297587 0.1426273 0.1587131 0.1774799 0.1855228 0.1265416 0.1034853 0.1136729 0.110992 0.1061662 0.138874 0.1297587 0.1168901 0.09329759 0.09061662 0.08954424 0.08150134 0.08739946 0.08632708 0.08150134 0.08525469 0.08525469 0.08310992 0.08310992 0.08203753 0.08364611 0.0847185 0.08418231 0.08686327 0.110992 0.1297587 0.1335121 0.09919571 0.08739946 0.0847185 0.0847185 0.08525469 0.08739946 0.09008043 0.1099196 0.09008043 0.08847185 0.08847185 0.08954424 0.09544236 0.1093834 0.1184987 0.1024129 0.1067024 0.1126005 0.1072386 0.1254692 0.1142091 0.1211796 0.1029491 0.1008043 0.1678284
-9999 -9999 -9999 -9999 -9999 -9999 -9999 -9999 -9999 -9999 -9999 -9999 -9999 -9999 -9999 -9999 -9999 -9999 -9999 -9999 -9999 -9999 -9999 -9999 -9999 -9999 -9999 -9999 -9999 -9999 -9999 -9999 -9999 -9999 -9999 -9999 -9999 -9999 0.2235925 0.1957105 0.1436997 0.1233244 0.1126005 0.1099196 0.1018767 0.1104558 0.1072386 0.108311 0.1024129 0.09490617 0.1067024 0.09758713 0.08900804 0.1158177 0.10563 0.09597855 0.0847185 0.1201072 0.1142091 0.1265416 0.1227882 0.1233244 0.1265416 0.1260054 0.1319035 0.1613941 0.202681 0.2793566 0.2563003 0.1903485 0.1823056 0.1463807 0.1630027 0.2021448 0.1994638 0.2772118 0.2310992 0.2144772 0.1806971 0.1431635 0.1957105 0.1882038 0.1560322 0.1260054 0.1345845 0.1522788 0.1265416 0.1308311 0.1270777 0.1265416 0.1174263 0.1152815 0.124933 0.1485255 0.136193 0.1308311 0.1292225 0.1270777 0.1319035 0.2005362 0.1908847 0.1962467 0.2782842 0.291689 0.3104558 0.2359249 0.1871314 0.1689008 0.1565684 0.1603217 0.1442359 0.1265416 0.1399464 0.124933 0.1378016 0.1265416 0.1126005 0.1142091 0.1029491 0.09490617 0.1297587 0.1297587 0.122252 0.1040214 0.1286863 0.1469169 0.2096515 0.2214477 0.2798928 0.3174263 0.2632708 0.2273458 0.1335121 0.1077748 0.1045576 0.1050938 0.1088472 0.09919571 0.1227882 0.1538874 0.1254692 0.1630027 0.1892761 0.2455764 0.2718499 0.277748 0.2772118 0.336193 0.3924933 0.4386059 0.4058981 0.4117962 0.324933 0.2402145 0.2353887 0.275067 0.1941019 0.197319 0.2257373 0.219303 0.1243968 0.122252 0.2536193 0.2176944 0.2053619 0.1619303 0.1297587 0.0922252 0.07989276 0.07882038 0.07935657 0.07828418 0.07828418 0.07828418 0.07882038 0.07828418 0.07828418 0.08042896 0.08632708 0.08793566 0.07935657 0.07882038 0.07828418 0.07828418 0.07882038 0.07935657 0.0772118 0.08203753 0.08364611 0.0927614 0.09597855 0.09490617 0.0847185 0.07935657 0.07774799 0.07774799 0.07828418 0.07882038 0.07828418 0.07828418 0.07828418 0.07828418 0.07774799 0.07828418 0.07774799 0.07828418 0.07774799 0.07774799 0.07774799 0.07774799 0.0772118 0.07828418 0.0847185 0.08203753 0.08686327 0.07613941 0.0772118 0.07613941 0.07613941 0.07613941 0.07560322 0.07560322 0.07989276 0.07613941 0.07613941 0.07613941 0.07613941 0.07613941 0.07560322 0.07935657 0.0772118 0.07560322 0.08257373 0.08150134 0.07989276 0.09812333 0.1512064 0.1812332 0.1544236 0.09705094 0.09490617 0.09490617 0.09490617 0.09168901 0.0922252 0.1597855 0.2096515 0.1351206 0.09168901 0.09544236 0.1034853 0.0922252 0.09865952 0.09919571 0.1034853 0.09329759 0.0922252 0.08579089 0.08579089 0.09812333 0.119571 0.1040214 0.1045576 0.172118 0.1356568 0.1581769 0.09812333 0.1008043 0.08310992 0.08150134 0.08042896 0.08042896 0.08042896 0.0772118 0.07774799 0.07613941 0.07613941 0.07613941 0.0772118 0.07613941 0.0772118 0.07774799 0.07774799 0.0772118 0.0772118 0.07613941 0.0772118 0.0772118 0.07613941 0.07613941 0.07613941 0.07774799 0.07882038 0.0772118 0.07613941 0.07989276 0.07774799 0.0772118 0.0772118 0.0772118 0.07774799 0.07828418 0.07774799 0.07774799 0.07828418 0.07774799 0.07774799 0.07828418 0.07828418 0.07882038 0.07828418 0.07882038 0.08096515 0.07882038 0.07935657 0.07989276 0.07935657 0.07989276 0.07989276 0.07882038 0.07882038 0.08042896 0.1302949 0.08096515 0.08096515 0.07989276 0.08042896 0.09061662 0.08793566 0.09544236 0.08042896 0.07774799 0.08257373 0.08954424 0.09705094 0.1179625 0.1201072 0.1474531 0.1356568 0.1126005 0.09329759 0.10563 0.09544236 0.1024129 0.108311 0.1168901 0.1024129 0.1024129 0.0922252 0.0922252 0.08739946 0.08579089 0.08096515 0.08150134 0.08418231 0.08203753 0.08525469 0.08203753 0.08150134 0.08310992 0.08364611 0.08310992 0.08525469 0.08579089 0.08793566 0.1104558 0.1313673 0.1126005 0.1260054 0.0847185 0.08418231 0.0847185 0.08579089 0.08632708 0.09758713 0.1115282 0.08847185 0.08900804 0.08847185 0.0927614 0.1093834 0.108311 0.09812333 0.1072386 0.1018767 0.1024129 0.1024129 0.1163539 0.09705094 0.09597855 0.09758713 0.1603217
-9999 -9999 -9999 -9999 -9999 -9999 -9999 -9999 -9999 -9999 -9999 -9999 -9999 -9999 -9999 -9999 -9999 -9999 -9999 -9999 -9999 -9999 -9999 -9999 -9999 -9999 -9999 -9999 -9999 -9999 -9999 -9999 -9999 -9999 -9999 -9999 -9999 -9999 -9999 0.2085791 0.1571046 0.1227882 0.108311 0.1072386 0.1072386 0.09812333 0.1093834 0.1061662 0.1029491 0.09115282 0.08739946 0.08793566 0.09329759 0.138874 0.1088472 0.09168901 0.07292225 0.08150134 0.09919571 0.1126005 0.1174263 0.1174263 0.1152815 0.1152815 0.1463807 0.1378016 0.1587131 0.2316354 0.1817694 0.1806971 0.1340483 0.1646113 0.2032172 0.1994638 0.2187667 0.2890081 0.2396783 0.136193 0.1597855 0.202681 0.1978552 0.216622 0.1855228 0.1281501 0.1174263 0.1254692 0.1238606 0.1190348 0.1168901 0.122252 0.1104558 0.1211796 0.1367292 0.1340483 0.124933 0.1292225 0.1072386 0.1184987 0.1522788 0.1941019 0.2235925 0.2648793 0.2434316 0.216622 0.3276139 0.2504022 0.1780161 0.1522788 0.1469169 0.1474531 0.138874 0.1345845 0.1206434 0.1206434 0.1324397 0.1190348 0.1093834 0.1034853 0.0922252 0.1040214 0.1217158 0.1201072 0.1147453 0.1260054 0.1335121 0.1994638 0.2788204 0.2707775 0.2713137 0.2873995 0.2375335 0.227882 0.2273458 0.1764075 0.1796247 0.1201072 0.08525469 0.1447721 0.1560322 0.1276139 0.1512064 0.1426273 0.1705094 0.2284182 0.219303 0.1812332 0.2225201 0.3061662 0.3608579 0.3281501 0.3394102 0.3211796 0.3024129 0.2836461 0.202681 0.1442359 0.1276139 0.1957105 0.1796247 0.1592493 0.1099196 0.1469169 0.2016086 0.1560322 0.1635389 0.0997319 0.08525469 0.07935657 0.07828418 0.07882038 0.07882038 0.07882038 0.07882038 0.07882038 0.07828418 0.07774799 0.07828418 0.07774799 0.07828418 0.07882038 0.07828418 0.07882038 0.07828418 0.07828418 0.07935657 0.07935657 0.0772118 0.08203753 0.08203753 0.08418231 0.08954424 0.09436997 0.08257373 0.07935657 0.07774799 0.0772118 0.07828418 0.08096515 0.08096515 0.07882038 0.07828418 0.08150134 0.07828418 0.07882038 0.0772118 0.0772118 0.07613941 0.07613941 0.07613941 0.07774799 0.07774799 0.08042896 0.08310992 0.08847185 0.08686327 0.07989276 0.07935657 0.07613941 0.0772118 0.07613941 0.07613941 0.07613941 0.07828418 0.0772118 0.06863271 0.07238606 0.07774799 0.07828418 0.07613941 0.07935657 0.07774799 0.07828418 0.08364611 0.08150134 0.07989276 0.09865952 0.1538874 0.2369973 0.1367292 0.09651475 0.09383378 0.08847185 0.08954424 0.09061662 0.08739946 0.09865952 0.1142091 0.0927614 0.08954424 0.09061662 0.0997319 0.08847185 0.09865952 0.0922252 0.09061662 0.09865952 0.0922252 0.08632708 0.08525469 0.08847185 0.0927614 0.09061662 0.138874 0.1399464 0.09651475 0.08954424 0.09329759 0.09008043 0.08310992 0.08042896 0.07828418 0.07882038 0.08257373 0.08150134 0.0772118 0.07613941 0.07774799 0.07613941 0.07774799 0.07613941 0.07613941 0.0772118 0.07613941 0.0772118 0.07613941 0.07506702 0.07613941 0.07613941 0.07613941 0.07613941 0.07613941 0.07774799 0.07613941 0.0772118 0.0772118 0.07828418 0.07774799 0.0772118 0.07774799 0.07774799 0.07774799 0.07828418 0.07882038 0.07882038 0.07828418 0.07882038 0.07882038 0.07882038 0.07774799 0.07828418 0.08096515 0.08096515 0.08310992 0.07882038 0.07989276 0.07935657 0.07882038 0.07882038 0.07935657 0.07882038 0.07882038 0.07935657 0.08847185 0.08257373 0.08042896 0.08042896 0.08042896 0.08096515 0.08096515 0.0847185 0.07774799 0.08096515 0.08042896 0.08042896 0.08096515 0.09651475 0.09061662 0.08579089 0.09061662 0.09812333 0.1018767 0.1008043 0.1184987 0.1072386 0.1115282 0.09651475 0.08847185 0.08900804 0.09705094 0.09651475 0.09383378 0.09061662 0.08525469 0.08739946 0.08418231 0.08096515 0.08310992 0.08203753 0.08525469 0.08310992 0.08310992 0.08525469 0.08418231 0.08579089 0.1067024 0.1281501 0.1260054 0.1517426 0.1024129 0.08579089 0.08418231 0.08793566 0.08525469 0.08686327 0.0927614 0.09061662 0.08686327 0.08739946 0.09544236 0.09115282 0.09597855 0.09544236 0.09865952 0.1008043 0.09705094 0.09919571 0.1024129 0.108311 0.0997319 0.09705094 0.09544236 0.09812333
-9999 -9999 -9999 -9999 -9999 -9999 -9999 -9999 -9999 -9999 -9999 -9999 -9999 -9999 -9999 -9999 -9999 -9999 -9999 -9999 -9999 -9999 -9999 -9999 -9999 -9999 -9999 -9999 -9999 -9999 -9999 -9999 -9999 -9999 -9999 -9999 -9999 -9999 0.197319 0.2021448 0.1571046 0.122252 0.1163539 0.1136729 0.1104558 0.1013405 0.1013405 0.09812333 0.1029491 0.09544236 0.1034853 0.09705094 0.1120643 0.1410188 0.110992 0.10563 0.09490617 0.05683646 0.08257373 0.1024129 0.1136729 0.119571 0.1018767 0.1254692 0.1394102 0.141555 0.1898123 0.1806971 0.2091153 0.1737265 0.1254692 0.1560322 0.1378016 0.1785523 0.2219839 0.2788204 0.1951743 0.1474531 0.1233244 0.1919571 0.1978552 0.1731904 0.138874 0.1233244 0.1313673 0.1050938 0.1077748 0.1099196 0.1061662 0.1050938 0.1168901 0.1399464 0.1404826 0.1420912 0.1410188 0.1260054 0.1383378 0.1260054 0.1372654 0.155496 0.1538874 0.1737265 0.2016086 0.2573726 0.2793566 0.2112601 0.2176944 0.1608579 0.1517426 0.1324397 0.1302949 0.1533512 0.1726542 0.1351206 0.1308311 0.1211796 0.1099196 0.108311 0.09115282 0.09758713 0.1013405 0.1008043 0.1131367 0.1335121 0.2557641 0.1962467 0.2310992 0.2815014 0.2734585 0.1930295 0.2160858 0.1747989 0.1930295 0.1474531 0.138874 0.09008043 0.09115282 0.1243968 0.1233244 0.1404826 0.1656836 0.2284182 0.2037534 0.1801609 0.1613941 0.2010724 0.2300268 0.3018767 0.2766756 0.261126 0.3656836 0.3104558 0.2450402 0.2530831 0.1576408 0.1774799 0.1624665 0.122252 0.1302949 0.1238606 0.1040214 0.1924933 0.2418231 0.1989276 0.08686327 0.08042896 0.07774799 0.07828418 0.07828418 0.07882038 0.07774799 0.07774799 0.07828418 0.07882038 0.07882038 0.08257373 0.07774799 0.0772118 0.07774799 0.0772118 0.07828418 0.07882038 0.07828418 0.08418231 0.07989276 0.07935657 0.07989276 0.08900804 0.08954424 0.08793566 0.0847185 0.09490617 0.0927614 0.08257373 0.07774799 0.0772118 0.0772118 0.07774799 0.08096515 0.07828418 0.07935657 0.07935657 0.08042896 0.08900804 0.09061662 0.07935657 0.07613941 0.07613941 0.07613941 0.07935657 0.08096515 0.08310992 0.08632708 0.08364611 0.08418231 0.08418231 0.09061662 0.08954424 0.08257373 0.07613941 0.07613941 0.0772118 0.07774799 0.07774799 0.06541555 0.07184987 0.07882038 0.07935657 0.07613941 0.07774799 0.07935657 0.07828418 0.08418231 0.07935657 0.08418231 0.1233244 0.1270777 0.1731904 0.1045576 0.09061662 0.09061662 0.09597855 0.0927614 0.08579089 0.0847185 0.09329759 0.08793566 0.08739946 0.08418231 0.08739946 0.08418231 0.08847185 0.08418231 0.08954424 0.08632708 0.09115282 0.09705094 0.08900804 0.08579089 0.08310992 0.08900804 0.08954424 0.0847185 0.1126005 0.09008043 0.1024129 0.1324397 0.09490617 0.08364611 0.08096515 0.07828418 0.07613941 0.08310992 0.07613941 0.07774799 0.07774799 0.07613941 0.04182306 0.04879357 0.07292225 0.07828418 0.07828418 0.07613941 0.07613941 0.07613941 0.07613941 0.07613941 0.0772118 0.0772118 0.07828418 0.07774799 0.07828418 0.0772118 0.07613941 0.07774799 0.08096515 0.07828418 0.07774799 0.07828418 0.07828418 0.07935657 0.07989276 0.07882038 0.07935657 0.08042896 0.07935657 0.07774799 0.08042896 0.07882038 0.07828418 0.07989276 0.08257373 0.08203753 0.07989276 0.07989276 0.07989276 0.07935657 0.08042896 0.07882038 0.07828418 0.07882038 0.08096515 0.07882038 0.08364611 0.08310992 0.08096515 0.08096515 0.08042896 0.08150134 0.07989276 0.08096515 0.07989276 0.07989276 0.07989276 0.1163539 0.0847185 0.08525469 0.1324397 0.1967828 0.2064343 0.1394102 0.1260054 0.1120643 0.108311 0.108311 0.09865952 0.1420912 0.1436997 0.1646113 0.1034853 0.09168901 0.08632708 0.08847185 0.08739946 0.08257373 0.07989276 0.08310992 0.08364611 0.08257373 0.08310992 0.08364611 0.08418231 0.08686327 0.09168901 0.1024129 0.110992 0.1340483 0.08900804 0.08686327 0.08686327 0.08418231 0.08525469 0.08579089 0.08632708 0.08686327 0.08632708 0.08739946 0.08847185 0.09651475 0.09544236 0.09115282 0.09758713 0.0997319 0.1029491 0.09651475 0.1018767 0.1018767 0.1040214 0.09865952 0.0922252 0.09115282 0.0997319
-9999 -9999 -9999 -9999 -9999 -9999 -9999 -9999 -9999 -9999 -9999 -9999 -9999 -9999 -9999 -9999 -9999 -9999 -9999 -9999 -9999 -9999 -9999 -9999 -9999 -9999 -9999 -9999 -9999 -9999 -9999 -9999 -9999 -9999 -9999 -9999 -9999 0.1576408 0.1533512 0.1506702 0.1297587 0.1276139 0.1120643 0.1040214 0.09812333 0.1077748 0.09865952 0.09168901 0.1447721 0.1651475 0.1184987 0.1179625 0.1142091 0.1351206 0.1206434 0.1613941 0.1061662 0.09383378 0.06595174 0.08310992 0.08900804 0.1136729 0.1163539 0.1453083 0.136193 0.169437 0.213941 0.1699732 0.1656836 0.166756 0.1463807 0.2386059 0.183378 0.2150134 0.2439678 0.2010724 0.1565684 0.1565684 0.1431635 0.1538874 0.1436997 0.1184987 0.1190348 0.1093834 0.1168901 0.1142091 0.1013405 0.1072386 0.110992 0.1211796 0.1206434 0.1270777 0.1243968 0.1351206 0.1281501 0.1512064 0.1469169 0.1356568 0.1351206 0.1678284 0.216622 0.2664879 0.3581769 0.3120643 0.324933 0.2697051 0.2155496 0.1683646 0.1453083 0.2337802 0.2171582 0.1410188 0.1581769 0.110992 0.1281501 0.1152815 0.122252 0.1243968 0.09329759 0.1008043 0.1152815 0.1265416 0.1378016 0.2214477 0.2407507 0.1930295 0.1474531 0.2075067 0.2171582 0.1549598 0.2085791 0.1635389 0.1613941 0.1302949 0.09812333 0.1013405 0.08632708 0.1008043 0.119571 0.1785523 0.2348526 0.2412869 0.1785523 0.1747989 0.1313673 0.166756 0.1737265 0.261126 0.2262735 0.2718499 0.2772118 0.2729222 0.2117963 0.1747989 0.1522788 0.1367292 0.1201072 0.150134 0.1099196 0.1646113 0.1796247 0.1678284 0.1608579 0.1217158 0.08257373 0.07935657 0.07882038 0.07882038 0.07882038 0.07882038 0.07828418 0.07882038 0.07774799 0.07882038 0.07882038 0.09383378 0.08686327 0.07935657 0.08257373 0.07774799 0.07774799 0.07935657 0.07989276 0.07935657 0.07828418 0.07882038 0.07613941 0.08525469 0.0772118 0.09168901 0.08579089 0.09329759 0.1002681 0.09061662 0.07828418 0.07774799 0.07774799 0.07828418 0.07828418 0.07828418 0.08686327 0.08418231 0.08096515 0.07774799 0.08364611 0.08739946 0.08096515 0.07613941 0.0772118 0.07935657 0.08525469 0.08847185 0.08739946 0.08793566 0.08203753 0.08418231 0.08847185 0.09597855 0.08096515 0.07613941 0.07882038 0.07774799 0.07882038 0.07613941 0.07024129 0.07774799 0.08310992 0.08096515 0.07935657 0.07828418 0.07774799 0.07882038 0.08096515 0.07828418 0.08418231 0.09329759 0.1115282 0.1351206 0.1018767 0.08847185 0.0997319 0.09168901 0.09490617 0.09758713 0.08686327 0.08632708 0.08203753 0.08525469 0.08310992 0.08632708 0.09436997 0.0927614 0.08632708 0.0927614 0.09812333 0.09168901 0.09812333 0.08525469 0.08310992 0.08150134 0.08418231 0.08364611 0.08203753 0.08310992 0.08364611 0.1281501 0.1308311 0.08418231 0.08847185 0.08686327 0.08150134 0.07774799 0.08042896 0.08096515 0.08203753 0.0772118 0.04450402 0.0772118 0.07613941 0.07613941 0.07774799 0.07613941 0.0772118 0.0772118 0.0772118 0.07828418 0.07613941 0.07774799 0.07882038 0.07882038 0.07989276 0.0772118 0.07828418 0.07774799 0.07989276 0.07935657 0.07989276 0.07828418 0.0772118 0.07882038 0.07613941 0.07613941 0.07774799 0.07613941 0.07882038 0.07935657 0.07828418 0.07613941 0.0772118 0.07828418 0.07882038 0.07882038 0.07882038 0.07935657 0.07774799 0.0772118 0.07774799 0.07882038 0.07882038 0.07989276 0.07882038 0.07882038 0.08525469 0.0847185 0.1002681 0.09865952 0.08686327 0.08954424 0.07774799 0.07882038 0.08096515 0.08042896 0.08418231 0.0927614 0.09705094 0.08579089 0.1072386 0.1340483 0.1297587 0.1276139 0.1286863 0.1308311 0.1217158 0.1211796 0.138874 0.108311 0.1013405 0.1093834 0.1302949 0.1120643 0.10563 0.1013405 0.08632708 0.08686327 0.08364611 0.08203753 0.08203753 0.08257373 0.08203753 0.08418231 0.08364611 0.08525469 0.09168901 0.09758713 0.1002681 0.1179625 0.1115282 0.08632708 0.08686327 0.08579089 0.08525469 0.08525469 0.08632708 0.08579089 0.08579089 0.08579089 0.08900804 0.09919571 0.09758713 0.09008043 0.09061662 0.09490617 0.09812333 0.1008043 0.09544236 0.09544236 0.1072386 0.09865952 0.1319035 0.0922252 0.08900804 0.09115282
-9999 -9999 -9999 -9999 -9999 -9999 -9999 -9999 -9999 -9999 -9999 -9999 -9999 -9999 -9999 -9999 -9999 -9999 -9999 -9999 -9999 -9999 -9999 -9999 -9999 -9999 -9999 -9999 -9999 -9999 -9999 -9999 -9999 -9999 -9999 -9999 -9999 0.1383378 0.1270777 0.138874 0.1479893 0.1410188 0.1077748 0.1018767 0.1131367 0.1013405 0.09597855 0.1356568 0.1544236 0.1613941 0.1174263 0.1211796 0.1040214 0.1093834 0.1040214 0.1201072 0.1211796 0.09919571 0.08793566 0.07613941 0.1013405 0.1131367 0.1372654 0.1689008 0.1152815 0.1705094 0.1957105 0.1420912 0.1233244 0.1115282 0.1640751 0.2316354 0.1924933 0.1662198 0.1882038 0.1587131 0.152815 0.1201072 0.1345845 0.1077748 0.1168901 0.1115282 0.09758713 0.09919571 0.1093834 0.1072386 0.1002681 0.09865952 0.1029491 0.1152815 0.1265416 0.1190348 0.1292225 0.1168901 0.1184987 0.124933 0.1034853 0.1142091 0.1431635 0.2369973 0.1962467 0.2284182 0.350134 0.3898123 0.3265415 0.2117963 0.1957105 0.2134048 0.2343163 0.2235925 0.1630027 0.1619303 0.1008043 0.1067024 0.1120643 0.1217158 0.10563 0.1163539 0.1034853 0.09651475 0.1147453 0.1747989 0.2048257 0.2069705 0.213941 0.1506702 0.1163539 0.1844504 0.1689008 0.1302949 0.169437 0.1796247 0.1184987 0.1093834 0.1281501 0.08257373 0.08257373 0.1034853 0.1292225 0.1522788 0.2568365 0.3335121 0.2235925 0.1801609 0.1420912 0.1512064 0.2343163 0.2595174 0.2461126 0.1495979 0.1640751 0.2064343 0.1946381 0.172118 0.1689008 0.1442359 0.1458445 0.1801609 0.1436997 0.2386059 0.2434316 0.1335121 0.08900804 0.08096515 0.07882038 0.07935657 0.07882038 0.08042896 0.07774799 0.07882038 0.07882038 0.07882038 0.07774799 0.07828418 0.0772118 0.08525469 0.08203753 0.08525469 0.07935657 0.0772118 0.07774799 0.07774799 0.07935657 0.07935657 0.07882038 0.07774799 0.0772118 0.07935657 0.08203753 0.08954424 0.08364611 0.0927614 0.09490617 0.08632708 0.07935657 0.07882038 0.07882038 0.07774799 0.07828418 0.07828418 0.08096515 0.08257373 0.08096515 0.08150134 0.07989276 0.08364611 0.0847185 0.08042896 0.07882038 0.08150134 0.08364611 0.09115282 0.09061662 0.09008043 0.08203753 0.07882038 0.0772118 0.08418231 0.07828418 0.07613941 0.09115282 0.08042896 0.09061662 0.07613941 0.07560322 0.08203753 0.08525469 0.08257373 0.07774799 0.07935657 0.07989276 0.07935657 0.08257373 0.08686327 0.09115282 0.09865952 0.0927614 0.09383378 0.08739946 0.08525469 0.08739946 0.09115282 0.0922252 0.09544236 0.08954424 0.08954424 0.08579089 0.08310992 0.08150134 0.08954424 0.08847185 0.08364611 0.08525469 0.08364611 0.08150134 0.08579089 0.09705094 0.1217158 0.08739946 0.08096515 0.07935657 0.07935657 0.08364611 0.07989276 0.0847185 0.09115282 0.08096515 0.08418231 0.08739946 0.08525469 0.08418231 0.09115282 0.08632708 0.08418231 0.07774799 0.04932976 0.07613941 0.0772118 0.0772118 0.0772118 0.07613941 0.07882038 0.07828418 0.0772118 0.0772118 0.07613941 0.07613941 0.0772118 0.07828418 0.07828418 0.07882038 0.07989276 0.08096515 0.08150134 0.08257373 0.07828418 0.07989276 0.07882038 0.07828418 0.07828418 0.07828418 0.07935657 0.07935657 0.07882038 0.0772118 0.07828418 0.07935657 0.07989276 0.07882038 0.07828418 0.07935657 0.07989276 0.07989276 0.07882038 0.07935657 0.08042896 0.07935657 0.07935657 0.0772118 0.07882038 0.07935657 0.07935657 0.08042896 0.08579089 0.09329759 0.07882038 0.07828418 0.1040214 0.1179625 0.09115282 0.07989276 0.08257373 0.1769437 0.1270777 0.09115282 0.08847185 0.08203753 0.08310992 0.08525469 0.08847185 0.0922252 0.09436997 0.09758713 0.1013405 0.1292225 0.1512064 0.10563 0.1201072 0.1147453 0.09919571 0.1072386 0.09705094 0.0847185 0.0847185 0.07613941 0.08203753 0.08310992 0.08257373 0.08257373 0.08310992 0.08418231 0.09436997 0.08418231 0.09758713 0.0927614 0.0922252 0.09168901 0.08847185 0.08579089 0.08579089 0.08579089 0.08525469 0.08686327 0.08579089 0.08525469 0.08686327 0.08954424 0.0927614 0.09758713 0.1008043 0.08954424 0.08900804 0.09383378 0.09544236 0.09812333 0.1024129 0.1163539 0.0922252 0.09597855 0.1018767 0.09168901 0.09758713
-9999 -9999 -9999 -9999 -9999 -9999 -9999 -9999 -9999 -9999 -9999 -9999 -9999 -9999 -9999 -9999 -9999 -9999 -9999 -9999 -9999 -9999 -9999 -9999 -9999 -9999 -9999 -9999 -9999 -9999 -9999 -9999 -9999 -9999 -9999 -9999 0.1404826 0.1351206 0.1410188 0.119571 0.1201072 0.1093834 0.1174263 0.1184987 0.1067024 0.1093834 0.1040214 0.1308311 0.1276139 0.1088472 0.1018767 0.1104558 0.108311 0.09812333 0.09758713 0.1340483 0.1179625 0.1013405 0.09168901 0.0772118 0.07935657 0.09436997 0.0997319 0.1126005 0.1061662 0.122252 0.1217158 0.152815 0.1378016 0.1018767 0.1994638 0.2209115 0.1710456 0.1485255 0.1630027 0.1678284 0.1469169 0.1168901 0.1158177 0.1126005 0.09544236 0.09490617 0.09490617 0.09383378 0.1104558 0.1045576 0.1002681 0.1008043 0.1034853 0.1126005 0.1174263 0.1174263 0.1286863 0.1184987 0.1002681 0.1045576 0.1426273 0.1592493 0.2423593 0.2058981 0.2659518 0.30563 0.3174263 0.4230563 0.3474531 0.2836461 0.2391421 0.2729222 0.2359249 0.1495979 0.155496 0.1302949 0.1104558 0.09597855 0.1179625 0.1152815 0.1120643 0.09544236 0.09651475 0.1190348 0.2 0.1426273 0.1737265 0.2273458 0.1630027 0.1319035 0.1131367 0.1410188 0.150134 0.1790885 0.1292225 0.141555 0.1152815 0.09597855 0.09115282 0.08203753 0.08739946 0.1538874 0.1576408 0.2402145 0.2756032 0.2262735 0.1967828 0.1544236 0.1179625 0.122252 0.2016086 0.1731904 0.1764075 0.1458445 0.1710456 0.1828418 0.2160858 0.1946381 0.219303 0.2273458 0.219303 0.202681 0.2579089 0.2032172 0.1340483 0.08632708 0.08150134 0.07989276 0.07828418 0.07828418 0.07774799 0.07935657 0.07989276 0.07882038 0.07882038 0.07882038 0.07774799 0.07774799 0.07828418 0.08525469 0.08150134 0.08203753 0.07989276 0.07828418 0.07828418 0.07828418 0.07882038 0.07882038 0.07828418 0.07828418 0.07613941 0.07935657 0.08847185 0.08150134 0.07935657 0.08203753 0.08203753 0.08364611 0.07989276 0.07935657 0.07882038 0.07989276 0.07774799 0.08150134 0.07989276 0.08310992 0.07935657 0.08310992 0.08203753 0.0847185 0.08364611 0.08257373 0.08203753 0.08525469 0.0922252 0.09383378 0.09168901 0.09008043 0.08900804 0.07882038 0.07828418 0.07613941 0.07613941 0.07828418 0.07828418 0.08579089 0.08042896 0.07935657 0.07613941 0.08150134 0.08257373 0.0772118 0.07613941 0.07935657 0.0772118 0.08203753 0.08364611 0.08310992 0.09705094 0.08900804 0.09544236 0.09705094 0.08793566 0.0847185 0.08364611 0.09061662 0.08364611 0.09168901 0.08900804 0.08042896 0.08150134 0.08257373 0.07935657 0.07935657 0.07989276 0.08579089 0.0847185 0.08042896 0.07989276 0.08418231 0.1040214 0.141555 0.0997319 0.09705094 0.09168901 0.07882038 0.07828418 0.07613941 0.07774799 0.07882038 0.08525469 0.08525469 0.08042896 0.08579089 0.08847185 0.08042896 0.07882038 0.07935657 0.07613941 0.07613941 0.0772118 0.07613941 0.07613941 0.07774799 0.07774799 0.0772118 0.07613941 0.0772118 0.0772118 0.07613941 0.07828418 0.07828418 0.07774799 0.07935657 0.07935657 0.07935657 0.07989276 0.07774799 0.08096515 0.07882038 0.07989276 0.08203753 0.07935657 0.08310992 0.08096515 0.08096515 0.07774799 0.07774799 0.07989276 0.07828418 0.07935657 0.07989276 0.08096515 0.07774799 0.07613941 0.07935657 0.0772118 0.08096515 0.07935657 0.07828418 0.07882038 0.07882038 0.08042896 0.07828418 0.07935657 0.07935657 0.08310992 0.08150134 0.09168901 0.09061662 0.1061662 0.1474531 0.1737265 0.155496 0.08203753 0.08042896 0.1565684 0.1163539 0.08418231 0.08150134 0.08150134 0.08203753 0.08310992 0.08793566 0.09061662 0.09490617 0.1045576 0.1045576 0.1050938 0.1120643 0.1817694 0.1404826 0.1158177 0.09651475 0.09490617 0.0927614 0.1045576 0.0847185 0.08310992 0.08203753 0.08203753 0.08257373 0.08203753 0.08203753 0.08418231 0.08418231 0.0847185 0.08310992 0.08418231 0.08310992 0.08364611 0.08525469 0.08418231 0.08579089 0.08686327 0.0847185 0.08525469 0.08525469 0.08579089 0.08525469 0.08847185 0.09115282 0.09383378 0.09919571 0.0922252 0.08793566 0.08847185 0.09651475 0.1024129 0.09812333 0.09597855 0.08847185 0.08900804 0.08954424 0.08954424 0.09544236
-9999 -9999 -9999 -9999 -9999 -9999 -9999 -9999 -9999 -9999 -9999 -9999 -9999 -9999 -9999 -9999 -9999 -9999 -9999 -9999 -9999 -9999 -9999 -9999 -9999 -9999 -9999 -9999 -9999 -9999 -9999 -9999 -9999 -9999 -9999 -9999 -9999 -9999 0.1351206 0.1227882 0.1426273 0.1431635 0.1201072 0.1147453 0.1142091 0.1072386 0.09490617 0.1243968 0.1115282 0.0997319 0.09758713 0.09490617 0.09651475 0.09758713 0.08847185 0.1093834 0.1077748 0.1018767 0.09329759 0.0772118 0.08042896 0.09651475 0.09651475 0.09919571 0.1404826 0.1115282 0.1233244 0.1420912 0.1479893 0.1276139 0.1270777 0.1780161 0.1898123 0.1436997 0.1608579 0.1662198 0.1726542 0.136193 0.1163539 0.1093834 0.1179625 0.1077748 0.1029491 0.0927614 0.09919571 0.1061662 0.09865952 0.09008043 0.10563 0.1179625 0.1158177 0.1512064 0.1211796 0.1072386 0.1061662 0.1265416 0.1495979 0.230563 0.216622 0.2327078 0.3619303 0.352815 0.4509383 0.5270777 0.3726542 0.3356568 0.2273458 0.1699732 0.1302949 0.1276139 0.1442359 0.1297587 0.1067024 0.09651475 0.1270777 0.1265416 0.09812333 0.09490617 0.1168901 0.1233244 0.1812332 0.2128686 0.2058981 0.1823056 0.1512064 0.1168901 0.1099196 0.119571 0.1227882 0.124933 0.1126005 0.1002681 0.1522788 0.09115282 0.08096515 0.08203753 0.1152815 0.1281501 0.2058981 0.2664879 0.1764075 0.1490617 0.1174263 0.1131367 0.09383378 0.1104558 0.1544236 0.1453083 0.1699732 0.1345845 0.1737265 0.2246649 0.2482574 0.2386059 0.2648793 0.3324397 0.2557641 0.3458445 0.3077748 0.2171582 0.1587131 0.08096515 0.08042896 0.07935657 0.07882038 0.07882038 0.07989276 0.08150134 0.07989276 0.04182306 0.08310992 0.08150134 0.07882038 0.07882038 0.08150134 0.07882038 0.07828418 0.07828418 0.07774799 0.07828418 0.07935657 0.07774799 0.07828418 0.07935657 0.07882038 0.07935657 0.07613941 0.07935657 0.08257373 0.08257373 0.07774799 0.07828418 0.08042896 0.08686327 0.08310992 0.08203753 0.08042896 0.07828418 0.07935657 0.08203753 0.08150134 0.07399464 0.07935657 0.07828418 0.07828418 0.07935657 0.08418231 0.08364611 0.08632708 0.09383378 0.1008043 0.09544236 0.09490617 0.08847185 0.0847185 0.07774799 0.07882038 0.07613941 0.0772118 0.07613941 0.07613941 0.0997319 0.08096515 0.07882038 0.07882038 0.07882038 0.06702413 0.07131367 0.07613941 0.07828418 0.07989276 0.08150134 0.08042896 0.08847185 0.08900804 0.09008043 0.0927614 0.08954424 0.08686327 0.08525469 0.08150134 0.08364611 0.08418231 0.08739946 0.08525469 0.08364611 0.08257373 0.08042896 0.08096515 0.07882038 0.07774799 0.0772118 0.08257373 0.07935657 0.07774799 0.08150134 0.08310992 0.09758713 0.09008043 0.07882038 0.07882038 0.07828418 0.0772118 0.07882038 0.07774799 0.07774799 0.08310992 0.07828418 0.07828418 0.08042896 0.07935657 0.07882038 0.07613941 0.07774799 0.07613941 0.07613941 0.07882038 0.07774799 0.07774799 0.0772118 0.07613941 0.07613941 0.07828418 0.07774799 0.07828418 0.07774799 0.0772118 0.07774799 0.07828418 0.07935657 0.07774799 0.07935657 0.07989276 0.07828418 0.08310992 0.08257373 0.08418231 0.08150134 0.07613941 0.0772118 0.0772118 0.07882038 0.08418231 0.07935657 0.08042896 0.07935657 0.07935657 0.07882038 0.07882038 0.07882038 0.0772118 0.07935657 0.08310992 0.08150134 0.08150134 0.08203753 0.07989276 0.07989276 0.07989276 0.08042896 0.07989276 0.08042896 0.08042896 0.08203753 0.07989276 0.0772118 0.1571046 0.1576408 0.1592493 0.1780161 0.0997319 0.1174263 0.1045576 0.08203753 0.08042896 0.08042896 0.08257373 0.08739946 0.09490617 0.09544236 0.0922252 0.08418231 0.08310992 0.0847185 0.08793566 0.08900804 0.08900804 0.09329759 0.1131367 0.1174263 0.09490617 0.1313673 0.1345845 0.1077748 0.08632708 0.08310992 0.08257373 0.08310992 0.08310992 0.08257373 0.08310992 0.08364611 0.08364611 0.08418231 0.08310992 0.08310992 0.08257373 0.08525469 0.08686327 0.08525469 0.0847185 0.0847185 0.08525469 0.08579089 0.08632708 0.08525469 0.08525469 0.09008043 0.09812333 0.0922252 0.08954424 0.08954424 0.08954424 0.09597855 0.09705094 0.09436997 0.08739946 0.0922252 0.0922252 0.08847185 0.08847185 0.0922252
-9999 -9999 -9999 -9999 -9999 -9999 -9999 -9999 -9999 -9999 -9999 -9999 -9999 -9999 -9999 -9999 -9999 -9999 -9999 -9999 -9999 -9999 -9999 -9999 -9999 -9999 -9999 -9999 -9999 -9999 -9999 -9999 -9999 -9999 -9999 -9999 -9999 -9999 0.138874 0.1329759 0.1426273 0.1383378 0.119571 0.1152815 0.1029491 0.10563 0.1131367 0.1120643 0.1104558 0.1061662 0.09651475 0.08739946 0.08954424 0.09115282 0.08632708 0.09436997 0.09597855 0.09490617 0.07989276 0.07613941 0.1040214 0.09115282 0.1104558 0.1104558 0.1013405 0.09329759 0.09436997 0.09865952 0.1061662 0.1142091 0.1533512 0.1689008 0.1549598 0.1410188 0.1608579 0.1635389 0.1630027 0.1324397 0.1292225 0.1233244 0.1217158 0.1077748 0.1115282 0.1099196 0.09597855 0.09168901 0.08954424 0.09436997 0.1040214 0.1120643 0.1426273 0.1152815 0.1179625 0.09651475 0.1093834 0.1163539 0.1538874 0.1560322 0.1576408 0.1839142 0.2187667 0.2782842 0.3844504 0.4745308 0.3335121 0.244504 0.2112601 0.1447721 0.122252 0.1238606 0.1136729 0.108311 0.1163539 0.1104558 0.09705094 0.1147453 0.0997319 0.09544236 0.09490617 0.1651475 0.1061662 0.1426273 0.1887399 0.2155496 0.1930295 0.1431635 0.1753351 0.108311 0.09329759 0.1018767 0.08900804 0.1533512 0.1184987 0.08150134 0.08042896 0.08150134 0.08739946 0.2380697 0.2112601 0.1544236 0.1088472 0.1061662 0.09544236 0.08900804 0.1233244 0.1485255 0.1571046 0.1372654 0.138874 0.1356568 0.1876676 0.2069705 0.2300268 0.2761394 0.322252 0.2664879 0.3512064 0.4176944 0.3008043 0.2702413 0.09651475 0.08096515 0.07774799 0.07882038 0.07882038 0.07935657 0.02466488 0.01179625 0.008042895 0.02198391 0.05790885 0.05737266 0.05576408 0.05630027 0.04235925 0.04289544 0.04718499 0.04182306 0.04128686 0.04718499 0.05469169 0.06005362 0.0772118 0.08579089 0.07935657 0.08042896 0.07828418 0.07882038 0.07828418 0.08096515 0.07828418 0.07774799 0.07774799 0.0847185 0.0847185 0.08257373 0.07935657 0.07828418 0.07828418 0.07882038 0.07774799 0.07935657 0.08257373 0.07613941 0.07613941 0.07828418 0.08096515 0.08257373 0.08900804 0.09168901 0.09812333 0.08686327 0.08900804 0.08525469 0.08150134 0.07774799 0.07774799 0.07882038 0.08096515 0.0772118 0.07506702 0.07560322 0.07774799 0.0772118 0.07774799 0.07560322 0.06380697 0.0691689 0.07560322 0.07613941 0.08096515 0.08257373 0.08257373 0.08793566 0.09061662 0.0847185 0.08793566 0.08579089 0.08418231 0.08096515 0.08042896 0.07882038 0.07613941 0.08632708 0.08686327 0.07989276 0.07935657 0.07935657 0.08042896 0.07882038 0.07774799 0.07774799 0.07935657 0.07774799 0.07613941 0.07828418 0.08042896 0.08364611 0.0997319 0.08579089 0.1024129 0.09812333 0.08525469 0.07774799 0.07774799 0.0772118 0.07613941 0.07560322 0.07613941 0.07613941 0.07613941 0.07613941 0.07613941 0.07613941 0.07774799 0.07828418 0.0772118 0.0772118 0.07613941 0.07613941 0.0772118 0.07935657 0.07774799 0.07828418 0.0772118 0.0772118 0.07828418 0.07828418 0.07828418 0.07882038 0.08793566 0.08525469 0.08042896 0.0772118 0.08042896 0.08364611 0.08257373 0.08364611 0.08418231 0.08257373 0.07613941 0.0772118 0.0772118 0.07828418 0.07882038 0.08042896 0.07774799 0.07774799 0.07828418 0.07828418 0.08203753 0.08203753 0.0847185 0.08150134 0.08525469 0.08418231 0.08203753 0.08686327 0.08257373 0.08632708 0.07774799 0.08042896 0.08042896 0.08042896 0.07774799 0.0927614 0.1463807 0.1292225 0.1603217 0.1571046 0.09436997 0.09061662 0.08150134 0.08632708 0.08150134 0.08364611 0.08579089 0.08310992 0.08257373 0.0847185 0.08257373 0.0847185 0.08632708 0.0847185 0.08632708 0.08364611 0.08525469 0.08632708 0.09329759 0.1061662 0.155496 0.1077748 0.09383378 0.0922252 0.08739946 0.08793566 0.08310992 0.08257373 0.08310992 0.08203753 0.08364611 0.08310992 0.08257373 0.08310992 0.08364611 0.08525469 0.08579089 0.08739946 0.08632708 0.08900804 0.0922252 0.09115282 0.08525469 0.08579089 0.08525469 0.08632708 0.08686327 0.08793566 0.08847185 0.08847185 0.08739946 0.09061662 0.09061662 0.09061662 0.08739946 0.08632708 0.08793566 0.09383378 0.1045576 0.0922252 0.08900804 0.08900804
-9999 -9999 -9999 -9999 -9999 -9999 -9999 -9999 -9999 -9999 -9999 -9999 -9999 -9999 -9999 -9999 -9999 -9999 -9999 -9999 -9999 -9999 -9999 -9999 -9999 -9999 -9999 -9999 -9999 -9999 -9999 -9999 -9999 -9999 -9999 -9999 -9999 -9999 0.1324397 0.1281501 0.1254692 0.1233244 0.1174263 0.1050938 0.1163539 0.1184987 0.1463807 0.1442359 0.1093834 0.09597855 0.09758713 0.09168901 0.09436997 0.0922252 0.09329759 0.09008043 0.08793566 0.07935657 0.09008043 0.09436997 0.119571 0.1115282 0.09705094 0.09651475 0.08579089 0.1002681 0.10563 0.1093834 0.09383378 0.1201072 0.1801609 0.2005362 0.1603217 0.1426273 0.1533512 0.1764075 0.1479893 0.1442359 0.1560322 0.122252 0.1163539 0.1147453 0.1243968 0.1104558 0.1045576 0.1072386 0.1050938 0.1024129 0.1072386 0.1067024 0.1088472 0.1067024 0.09436997 0.09597855 0.1254692 0.169437 0.1608579 0.297051 0.2568365 0.2300268 0.2289544 0.3517426 0.4203753 0.324933 0.3115281 0.2310992 0.1587131 0.1351206 0.1630027 0.1431635 0.1260054 0.1147453 0.1077748 0.110992 0.09865952 0.0927614 0.1227882 0.1184987 0.09383378 0.1077748 0.09544236 0.1436997 0.2273458 0.2498659 0.1967828 0.1678284 0.1281501 0.1292225 0.09544236 0.09383378 0.08579089 0.1104558 0.08257373 0.07989276 0.08418231 0.09758713 0.1024129 0.1420912 0.1126005 0.1029491 0.09758713 0.09544236 0.0922252 0.1131367 0.1319035 0.1238606 0.1238606 0.1206434 0.1512064 0.1624665 0.1774799 0.1849866 0.2117963 0.2187667 0.3286863 0.3479893 0.3764075 0.4879357 0.3276139 0.2203753 0.1898123 0.1233244 0.07935657 0.07828418 0.07935657 0.01930295 0 0.001608579 0.0155496 0.0230563 0.02841823 0.02788204 0.03163539 0.08042896 0.03485255 0.03485255 0.04128686 0.03806971 0.03217158 0.0536193 0.07560322 0.1008043 0.09865952 0.08900804 0.08310992 0.07935657 0.08096515 0.07828418 0.08203753 0.07882038 0.07989276 0.07935657 0.07882038 0.07935657 0.07828418 0.0772118 0.07882038 0.07882038 0.07774799 0.07453083 0.07774799 0.07774799 0.0772118 0.07882038 0.08042896 0.08042896 0.07989276 0.08096515 0.08793566 0.0922252 0.09812333 0.08418231 0.08310992 0.08042896 0.08096515 0.07613941 0.07613941 0.08096515 0.07613941 0.07774799 0.0772118 0.07935657 0.07613941 0.07613941 0.0772118 0.07989276 0.07238606 0.07184987 0.07613941 0.07828418 0.07774799 0.08310992 0.08203753 0.08632708 0.08310992 0.08364611 0.08579089 0.08096515 0.08096515 0.08203753 0.0772118 0.07828418 0.07882038 0.07882038 0.08150134 0.07882038 0.07613941 0.07828418 0.07774799 0.07828418 0.07613941 0.07774799 0.08203753 0.08150134 0.07935657 0.08042896 0.08364611 0.09490617 0.1136729 0.09758713 0.09436997 0.08096515 0.08364611 0.07882038 0.07774799 0.07613941 0.07560322 0.07828418 0.07613941 0.07506702 0.0772118 0.07560322 0.07828418 0.07774799 0.07774799 0.07613941 0.0772118 0.0772118 0.07828418 0.07828418 0.07935657 0.07935657 0.07774799 0.0772118 0.07613941 0.0772118 0.07828418 0.07774799 0.07935657 0.08900804 0.09329759 0.08418231 0.07989276 0.0772118 0.0772118 0.07774799 0.07989276 0.08257373 0.08364611 0.08793566 0.08364611 0.07935657 0.0772118 0.0772118 0.0772118 0.07882038 0.07882038 0.07774799 0.07882038 0.08364611 0.08203753 0.08310992 0.08364611 0.08203753 0.08203753 0.08364611 0.07935657 0.08632708 0.08364611 0.08739946 0.08525469 0.07828418 0.07828418 0.07774799 0.07989276 0.08418231 0.1356568 0.1018767 0.1093834 0.08150134 0.08150134 0.08418231 0.08900804 0.08739946 0.07935657 0.08096515 0.08042896 0.08096515 0.08096515 0.08150134 0.08203753 0.08310992 0.08257373 0.08310992 0.08150134 0.08525469 0.08793566 0.0922252 0.09061662 0.1045576 0.1453083 0.1597855 0.09115282 0.1034853 0.09705094 0.09383378 0.08954424 0.08579089 0.08418231 0.08686327 0.08203753 0.08257373 0.08257373 0.08257373 0.08364611 0.08364611 0.08525469 0.08579089 0.09115282 0.09490617 0.08954424 0.08686327 0.08847185 0.09061662 0.08579089 0.09008043 0.08793566 0.09008043 0.09544236 0.08900804 0.1093834 0.1013405 0.09061662 0.09061662 0.08739946 0.09383378 0.08900804 0.0927614 0.09490617 0.0997319 0.09061662 0.08847185
-9999 -9999 -9999 -9999 -9999 -9999 -9999 -9999 -9999 -9999 -9999 -9999 -9999 -9999 -9999 -9999 -9999 -9999 -9999 -9999 -9999 -9999 -9999 -9999 -9999 -9999 -9999 -9999 -9999 -9999 -9999 -9999 -9999 -9999 -9999 -9999 -9999 -9999 0.1372654 0.1313673 0.1474531 0.1270777 0.119571 0.1190348 0.1254692 0.1206434 0.1211796 0.1319035 0.1147453 0.0997319 0.09919571 0.108311 0.1029491 0.08793566 0.09383378 0.09061662 0.09812333 0.1029491 0.110992 0.1426273 0.138874 0.1372654 0.110992 0.1013405 0.08793566 0.09812333 0.1088472 0.150134 0.1420912 0.09812333 0.1184987 0.1340483 0.1678284 0.1560322 0.1544236 0.169437 0.1565684 0.1592493 0.1522788 0.1243968 0.1190348 0.110992 0.122252 0.1168901 0.1211796 0.1126005 0.1067024 0.1104558 0.09061662 0.1013405 0.09115282 0.09061662 0.108311 0.1265416 0.1335121 0.1962467 0.3581769 0.3088472 0.3002681 0.29437 0.3651474 0.4257373 0.3152815 0.2144772 0.2273458 0.1962467 0.1474531 0.219303 0.2434316 0.1699732 0.1217158 0.1270777 0.1265416 0.1136729 0.1024129 0.122252 0.1147453 0.09919571 0.1399464 0.1453083 0.1297587 0.1678284 0.1485255 0.1908847 0.1635389 0.1512064 0.1436997 0.1152815 0.09544236 0.1335121 0.09436997 0.08150134 0.07989276 0.07989276 0.08632708 0.1613941 0.1211796 0.08310992 0.08364611 0.1029491 0.08525469 0.09115282 0.09597855 0.1061662 0.1463807 0.1136729 0.1126005 0.1179625 0.122252 0.1431635 0.1560322 0.2010724 0.2530831 0.263807 0.3898123 0.3431635 0.2847185 0.308311 0.2525469 0.2949062 0.1571046 0.1018767 0.08042896 0.07935657 0.05790885 0.01072386 0.0230563 0.07989276 0.07935657 0.07935657 0.07935657 0.07989276 0.07882038 0.07828418 0.07828418 0.07774799 0.07828418 0.07774799 0.07774799 0.07882038 0.08579089 0.1254692 0.1705094 0.1045576 0.07131367 0.06809651 0.07399464 0.07882038 0.08150134 0.08847185 0.08525469 0.09061662 0.0847185 0.09705094 0.08042896 0.07882038 0.07882038 0.07828418 0.07882038 0.07345845 0.0772118 0.07828418 0.07828418 0.0772118 0.08150134 0.08310992 0.08739946 0.08310992 0.08525469 0.08686327 0.09812333 0.08847185 0.09008043 0.08257373 0.07882038 0.0772118 0.0772118 0.07613941 0.07774799 0.07882038 0.07613941 0.0772118 0.07613941 0.07774799 0.07828418 0.07935657 0.08203753 0.07399464 0.07828418 0.07882038 0.0772118 0.08096515 0.08364611 0.08257373 0.08042896 0.08203753 0.08042896 0.0772118 0.07828418 0.07774799 0.07935657 0.07774799 0.0772118 0.07613941 0.07613941 0.07882038 0.07882038 0.07613941 0.07613941 0.07613941 0.07613941 0.0772118 0.07774799 0.07882038 0.07613941 0.07613941 0.08150134 0.08257373 0.08096515 0.09008043 0.0847185 0.08310992 0.07989276 0.08739946 0.07774799 0.07774799 0.0772118 0.07613941 0.07613941 0.0772118 0.07774799 0.07613941 0.0772118 0.07613941 0.07613941 0.07613941 0.07882038 0.07613941 0.07613941 0.07774799 0.07774799 0.07882038 0.07774799 0.07774799 0.07774799 0.07774799 0.0772118 0.0772118 0.08418231 0.0922252 0.08739946 0.0847185 0.07882038 0.07613941 0.07613941 0.07613941 0.07989276 0.08096515 0.08525469 0.08579089 0.08632708 0.08257373 0.07774799 0.07774799 0.07774799 0.07613941 0.0772118 0.07774799 0.07989276 0.07935657 0.08364611 0.08632708 0.0847185 0.08686327 0.08954424 0.0847185 0.08257373 0.08632708 0.08847185 0.08310992 0.08793566 0.08096515 0.08096515 0.08150134 0.08096515 0.07989276 0.08525469 0.08793566 0.08042896 0.08203753 0.08257373 0.08096515 0.07935657 0.07935657 0.07989276 0.08257373 0.08096515 0.08096515 0.08257373 0.08150134 0.08096515 0.08203753 0.08203753 0.08150134 0.08257373 0.08418231 0.08739946 0.09168901 0.09436997 0.1008043 0.09812333 0.1099196 0.1329759 0.1206434 0.1297587 0.1045576 0.0922252 0.08847185 0.08793566 0.08525469 0.08257373 0.08257373 0.08257373 0.08310992 0.08203753 0.08310992 0.08525469 0.08686327 0.08686327 0.09115282 0.09115282 0.08847185 0.09329759 0.09705094 0.08739946 0.1034853 0.09919571 0.09705094 0.09008043 0.0927614 0.09490617 0.08793566 0.08793566 0.08686327 0.0927614 0.0927614 0.1158177 0.08954424 0.09168901 0.09651475 0.09597855 0.09115282
-9999 -9999 -9999 -9999 -9999 -9999 -9999 -9999 -9999 -9999 -9999 -9999 -9999 -9999 -9999 -9999 -9999 -9999 -9999 -9999 -9999 -9999 -9999 -9999 -9999 -9999 -9999 -9999 -9999 -9999 -9999 -9999 -9999 -9999 -9999 -9999 -9999 -9999 -9999 0.1453083 0.1436997 0.1340483 0.1158177 0.1297587 0.1313673 0.1297587 0.108311 0.1136729 0.110992 0.1050938 0.09168901 0.09490617 0.08793566 0.1104558 0.09758713 0.09651475 0.09436997 0.10563 0.1061662 0.1142091 0.1152815 0.110992 0.1174263 0.08793566 0.09651475 0.1072386 0.1104558 0.1699732 0.1699732 0.1640751 0.1067024 0.1453083 0.1683646 0.1737265 0.1705094 0.1592493 0.155496 0.1243968 0.1238606 0.1378016 0.1131367 0.1260054 0.1072386 0.1265416 0.1319035 0.119571 0.1190348 0.1158177 0.1040214 0.09329759 0.1072386 0.1163539 0.1136729 0.1442359 0.2016086 0.2895442 0.3581769 0.2997319 0.3823056 0.3624665 0.3630027 0.3394102 0.2128686 0.1774799 0.1865952 0.2053619 0.1946381 0.3045577 0.2766756 0.1490617 0.1785523 0.1431635 0.1120643 0.1120643 0.1453083 0.1726542 0.1308311 0.0997319 0.09490617 0.09597855 0.1147453 0.1603217 0.1383378 0.152815 0.1233244 0.1270777 0.1436997 0.1126005 0.1227882 0.108311 0.09436997 0.08042896 0.08203753 0.08364611 0.07774799 0.0772118 0.07613941 0.07613941 0.07613941 0.07828418 0.07935657 0.09329759 0.1217158 0.1458445 0.1040214 0.10563 0.09919571 0.1329759 0.1485255 0.1490617 0.1753351 0.216622 0.3356568 0.3983914 0.2804289 0.29437 0.2294906 0.2450402 0.2268097 0.1292225 0.1168901 0.08042896 0.07935657 0.07989276 0.07024129 0.08042896 0.07882038 0.07882038 0.07989276 0.108311 0.08096515 0.09383378 0.07828418 0.07774799 0.07774799 0.07774799 0.07613941 0.07774799 0.07774799 0.09758713 0.1898123 0.1699732 0.2058981 0.0847185 0.07828418 0.04932976 0.06863271 0.08096515 0.08042896 0.0922252 0.08847185 0.09061662 0.08900804 0.08793566 0.08257373 0.07935657 0.07989276 0.08042896 0.07882038 0.0772118 0.07774799 0.08257373 0.07882038 0.07774799 0.07935657 0.08042896 0.08579089 0.09008043 0.08257373 0.08793566 0.09115282 0.08847185 0.08847185 0.08364611 0.08096515 0.07560322 0.0772118 0.07560322 0.07935657 0.08203753 0.07774799 0.07613941 0.07613941 0.0772118 0.07828418 0.0772118 0.07828418 0.07774799 0.07774799 0.07828418 0.07882038 0.07882038 0.08150134 0.08150134 0.08150134 0.08525469 0.08418231 0.08310992 0.08364611 0.08364611 0.08632708 0.08203753 0.0772118 0.07613941 0.0772118 0.07774799 0.07613941 0.07989276 0.07774799 0.07399464 0.07131367 0.07882038 0.07399464 0.07613941 0.07292225 0.0772118 0.07399464 0.0772118 0.0772118 0.07882038 0.08042896 0.07774799 0.07774799 0.07828418 0.07613941 0.07774799 0.07613941 0.07613941 0.07560322 0.0772118 0.07613941 0.07560322 0.0772118 0.07613941 0.07613941 0.07613941 0.07613941 0.0772118 0.07828418 0.07882038 0.07882038 0.07882038 0.07774799 0.07774799 0.07560322 0.08096515 0.08310992 0.08954424 0.08418231 0.08954424 0.08739946 0.08364611 0.07828418 0.07613941 0.07828418 0.08096515 0.07774799 0.0772118 0.07989276 0.08150134 0.08579089 0.08042896 0.07989276 0.07828418 0.0772118 0.0772118 0.07774799 0.07989276 0.07774799 0.07828418 0.07989276 0.08257373 0.08525469 0.08686327 0.08900804 0.08632708 0.08686327 0.08954424 0.09008043 0.08203753 0.08042896 0.08150134 0.08042896 0.07989276 0.07935657 0.07989276 0.07989276 0.08096515 0.07882038 0.07935657 0.07935657 0.07882038 0.07935657 0.07935657 0.07935657 0.07989276 0.08096515 0.08096515 0.08096515 0.08096515 0.08150134 0.08150134 0.08096515 0.08310992 0.0847185 0.08739946 0.08632708 0.09008043 0.09436997 0.09919571 0.09436997 0.0997319 0.1463807 0.1233244 0.1040214 0.09597855 0.1013405 0.09061662 0.09168901 0.08418231 0.08257373 0.08203753 0.08257373 0.08310992 0.08310992 0.08310992 0.08418231 0.08364611 0.08579089 0.08418231 0.08739946 0.09115282 0.1024129 0.09651475 0.0922252 0.09008043 0.08686327 0.08793566 0.08739946 0.08847185 0.08793566 0.08793566 0.08793566 0.08847185 0.09436997 0.09329759 0.09812333 0.1008043 0.09490617 0.1024129 0.09544236 0.09812333
-9999 -9999 -9999 -9999 -9999 -9999 -9999 -9999 -9999 -9999 -9999 -9999 -9999 -9999 -9999 -9999 -9999 -9999 -9999 -9999 -9999 -9999 -9999 -9999 -9999 -9999 -9999 -9999 -9999 -9999 -9999 -9999 -9999 -9999 -9999 -9999 -9999 -9999 -9999 0.1699732 0.1474531 0.138874 0.1329759 0.1587131 0.1243968 0.1077748 0.1383378 0.110992 0.09544236 0.1024129 0.1152815 0.1179625 0.1061662 0.0997319 0.1040214 0.1050938 0.09544236 0.08525469 0.08954424 0.09865952 0.1201072 0.152815 0.1683646 0.1029491 0.09383378 0.1270777 0.1067024 0.1463807 0.183378 0.2010724 0.1276139 0.1260054 0.1447721 0.1458445 0.1689008 0.1522788 0.1292225 0.1131367 0.1147453 0.1147453 0.108311 0.1179625 0.1163539 0.10563 0.1077748 0.1126005 0.1163539 0.1115282 0.09705094 0.1045576 0.1662198 0.1335121 0.1378016 0.1630027 0.2225201 0.2965147 0.2664879 0.2134048 0.2664879 0.3436997 0.2048257 0.183378 0.2268097 0.150134 0.2863271 0.2793566 0.2552279 0.2498659 0.2954424 0.2557641 0.1994638 0.1710456 0.1120643 0.1635389 0.1705094 0.1367292 0.1050938 0.09490617 0.1281501 0.1431635 0.2160858 0.1678284 0.1319035 0.1099196 0.1184987 0.1174263 0.1340483 0.1372654 0.1184987 0.09383378 0.08096515 0.08364611 0.08257373 0.0772118 0.09544236 0.0997319 0.08257373 0.06541555 0.09329759 0.08042896 0.07613941 0.1286863 0.1747989 0.1351206 0.09383378 0.1340483 0.1882038 0.1828418 0.233244 0.2461126 0.263807 0.2965147 0.3351206 0.336193 0.2981233 0.2230563 0.1774799 0.152815 0.1522788 0.1136729 0.08096515 0.07989276 0.07828418 0.08579089 0.1077748 0.1067024 0.09115282 0.1313673 0.1731904 0.2198391 0.219303 0.1426273 0.08793566 0.0772118 0.07774799 0.07774799 0.07774799 0.07989276 0.08739946 0.2042895 0.2884718 0.2069705 0.1297587 0.07774799 0.07882038 0.05576408 0.0691689 0.08418231 0.08042896 0.0847185 0.07774799 0.07774799 0.0847185 0.08900804 0.08203753 0.07935657 0.07882038 0.07935657 0.07882038 0.07935657 0.07828418 0.07613941 0.0772118 0.08579089 0.08418231 0.08632708 0.08954424 0.08847185 0.08096515 0.08310992 0.08847185 0.09544236 0.0847185 0.08203753 0.08042896 0.07560322 0.07613941 0.07774799 0.0772118 0.07828418 0.07774799 0.07882038 0.07613941 0.07774799 0.0772118 0.07882038 0.07613941 0.07613941 0.07613941 0.07774799 0.07935657 0.07935657 0.07828418 0.08203753 0.08203753 0.08418231 0.08632708 0.08632708 0.08096515 0.07935657 0.08257373 0.08150134 0.08525469 0.07989276 0.07774799 0.08096515 0.07774799 0.07613941 0.0772118 0.07828418 0.09812333 0.08525469 0.07613941 0.07613941 0.07238606 0.07345845 0.07613941 0.07613941 0.07774799 0.0772118 0.0772118 0.07774799 0.07774799 0.07560322 0.0772118 0.07613941 0.07560322 0.07613941 0.0772118 0.07613941 0.07613941 0.07613941 0.07613941 0.07613941 0.07613941 0.0772118 0.07613941 0.07613941 0.07774799 0.07828418 0.0772118 0.07882038 0.07935657 0.07989276 0.08096515 0.08364611 0.08579089 0.09061662 0.08739946 0.09061662 0.08364611 0.0847185 0.08257373 0.07882038 0.07989276 0.08579089 0.08042896 0.08150134 0.0772118 0.08150134 0.08364611 0.0772118 0.0772118 0.07613941 0.0772118 0.07882038 0.08364611 0.07989276 0.07506702 0.07935657 0.08364611 0.07882038 0.07935657 0.08310992 0.08900804 0.08847185 0.08900804 0.08686327 0.08418231 0.08418231 0.0847185 0.08257373 0.08257373 0.07935657 0.07935657 0.07935657 0.07989276 0.07882038 0.07935657 0.07935657 0.07828418 0.07882038 0.07935657 0.07935657 0.07989276 0.08042896 0.08096515 0.08096515 0.08150134 0.08203753 0.08150134 0.08203753 0.08310992 0.08418231 0.08579089 0.08739946 0.08847185 0.08739946 0.08900804 0.09490617 0.108311 0.1206434 0.1329759 0.1426273 0.10563 0.1024129 0.09544236 0.1002681 0.09490617 0.08525469 0.09061662 0.0847185 0.08579089 0.08364611 0.08364611 0.08310992 0.08310992 0.08739946 0.10563 0.09812333 0.08739946 0.09383378 0.09544236 0.09919571 0.09061662 0.08632708 0.09115282 0.08954424 0.08847185 0.08793566 0.08954424 0.08793566 0.09168901 0.08954424 0.08900804 0.09115282 0.09008043 0.09651475 0.1002681 0.10563 0.1340483 0.1077748
-9999 -9999 -9999 -9999 -9999 -9999 -9999 -9999 -9999 -9999 -9999 -9999 -9999 -9999 -9999 -9999 -9999 -9999 -9999 -9999 -9999 -9999 -9999 -9999 -9999 -9999 -9999 -9999 -9999 -9999 -9999 -9999 -9999 -9999 -9999 -9999 -9999 -9999 -9999 -9999 0.2348526 0.1882038 0.1431635 0.1903485 0.1533512 0.1099196 0.1538874 0.1512064 0.1302949 0.1174263 0.1683646 0.1179625 0.1190348 0.1158177 0.1404826 0.1254692 0.1158177 0.1013405 0.09115282 0.08364611 0.08096515 0.09758713 0.1168901 0.09490617 0.1179625 0.1404826 0.09490617 0.1254692 0.1549598 0.2091153 0.1876676 0.1174263 0.1045576 0.124933 0.136193 0.1512064 0.1136729 0.1286863 0.1061662 0.1088472 0.1013405 0.1077748 0.1115282 0.1099196 0.1077748 0.1018767 0.1206434 0.09061662 0.1029491 0.1152815 0.1458445 0.136193 0.1479893 0.2252011 0.2847185 0.3764075 0.2477212 0.1828418 0.2707775 0.3034852 0.1753351 0.150134 0.2144772 0.1592493 0.2691689 0.2235925 0.2525469 0.2337802 0.2557641 0.3131367 0.1930295 0.1544236 0.1163539 0.1678284 0.1619303 0.1495979 0.1335121 0.1163539 0.1072386 0.1340483 0.2123324 0.1699732 0.1024129 0.1045576 0.1163539 0.1206434 0.1592493 0.1764075 0.1152815 0.08900804 0.08954424 0.1018767 0.1436997 0.1061662 0.110992 0.1163539 0.1238606 0.1297587 0.1619303 0.1656836 0.08686327 0.1008043 0.2032172 0.1254692 0.10563 0.2042895 0.1651475 0.2005362 0.2214477 0.2198391 0.1774799 0.1474531 0.1576408 0.2160858 0.3093834 0.2729222 0.2745308 0.1962467 0.1174263 0.08203753 0.07882038 0.07828418 0.07882038 0.124933 0.1619303 0.2713137 0.1946381 0.3136729 0.2906166 0.2713137 0.2546917 0.1485255 0.08042896 0.07774799 0.07774799 0.07828418 0.08042896 0.1067024 0.1517426 0.2659518 0.2536193 0.1126005 0.07882038 0.0772118 0.07935657 0.06809651 0.07292225 0.07828418 0.07989276 0.07774799 0.07774799 0.08364611 0.07989276 0.08632708 0.08310992 0.07882038 0.07882038 0.07882038 0.08042896 0.07774799 0.07935657 0.07882038 0.07989276 0.08954424 0.08096515 0.0927614 0.09115282 0.08847185 0.08150134 0.08418231 0.0847185 0.09436997 0.08579089 0.08310992 0.07828418 0.07613941 0.0772118 0.0772118 0.07774799 0.07613941 0.0772118 0.0772118 0.07613941 0.07613941 0.07613941 0.08150134 0.0772118 0.07613941 0.07613941 0.07774799 0.07935657 0.07774799 0.08096515 0.08150134 0.08257373 0.08310992 0.08310992 0.07989276 0.0772118 0.07774799 0.07935657 0.07935657 0.07774799 0.07935657 0.07613941 0.07774799 0.0772118 0.07453083 0.07560322 0.08096515 0.07774799 0.07399464 0.07238606 0.07184987 0.07560322 0.07560322 0.07506702 0.07399464 0.07399464 0.07828418 0.07828418 0.08203753 0.07774799 0.0772118 0.07560322 0.07560322 0.07613941 0.07613941 0.07613941 0.07613941 0.0772118 0.0772118 0.07613941 0.07613941 0.07989276 0.0772118 0.07506702 0.07560322 0.07613941 0.07613941 0.07774799 0.07882038 0.07882038 0.08150134 0.08203753 0.08150134 0.08525469 0.0847185 0.08739946 0.08900804 0.08793566 0.08418231 0.08364611 0.07613941 0.07828418 0.08632708 0.0847185 0.08739946 0.07935657 0.0772118 0.07774799 0.07560322 0.07613941 0.07560322 0.07935657 0.08257373 0.08364611 0.07774799 0.07560322 0.08042896 0.08096515 0.08364611 0.07882038 0.07882038 0.08310992 0.08632708 0.08739946 0.09008043 0.0847185 0.08632708 0.08632708 0.08150134 0.07882038 0.07989276 0.07882038 0.07989276 0.07935657 0.07882038 0.07882038 0.07882038 0.07935657 0.07882038 0.07882038 0.07935657 0.07935657 0.08042896 0.08096515 0.08150134 0.08096515 0.08042896 0.08203753 0.08364611 0.08525469 0.08579089 0.0847185 0.08525469 0.08579089 0.08793566 0.09758713 0.09651475 0.1013405 0.108311 0.1447721 0.1924933 0.1399464 0.1093834 0.0922252 0.09168901 0.08954424 0.08954424 0.09329759 0.08847185 0.08418231 0.08418231 0.08364611 0.0847185 0.08632708 0.09008043 0.09919571 0.1061662 0.09490617 0.1126005 0.1034853 0.1158177 0.08954424 0.0922252 0.0927614 0.08632708 0.08793566 0.09329759 0.09329759 0.09705094 0.09383378 0.09544236 0.1372654 0.09597855 0.1002681 0.09597855 0.1544236 0.213941 0.1613941 0.1286863
-9999 -9999 -9999 -9999 -9999 -9999 -9999 -9999 -9999 -9999 -9999 -9999 -9999 -9999 -9999 -9999 -9999 -9999 -9999 -9999 -9999 -9999 -9999 -9999 -9999 -9999 -9999 -9999 -9999 -9999 -9999 -9999 -9999 -9999 -9999 -9999 -9999 -9999 -9999 -9999 0.2713137 0.1876676 0.1994638 0.2579089 0.1404826 0.1367292 0.1994638 0.1485255 0.1581769 0.1158177 0.1420912 0.1238606 0.1115282 0.1265416 0.1565684 0.1630027 0.1603217 0.1184987 0.09329759 0.06809651 0.08042896 0.07613941 0.07613941 0.07453083 0.07292225 0.0772118 0.07560322 0.09651475 0.2117963 0.2343163 0.1957105 0.1453083 0.0922252 0.1088472 0.1179625 0.1126005 0.1045576 0.119571 0.1115282 0.09919571 0.1050938 0.09812333 0.1077748 0.1061662 0.0922252 0.1088472 0.1029491 0.09436997 0.09758713 0.1131367 0.1174263 0.1747989 0.1844504 0.2423593 0.2820375 0.2654155 0.2788204 0.1608579 0.2257373 0.1705094 0.1753351 0.119571 0.1426273 0.1265416 0.2504022 0.155496 0.1608579 0.2171582 0.166756 0.2144772 0.1747989 0.1410188 0.1855228 0.1785523 0.1302949 0.1163539 0.1115282 0.1372654 0.1088472 0.09812333 0.1506702 0.1227882 0.0927614 0.1142091 0.1115282 0.1302949 0.1453083 0.122252 0.08847185 0.09008043 0.1662198 0.2579089 0.1495979 0.1158177 0.1356568 0.1560322 0.1544236 0.2536193 0.2809651 0.2407507 0.1168901 0.1008043 0.1147453 0.138874 0.08739946 0.08954424 0.0927614 0.08579089 0.09597855 0.09651475 0.1184987 0.1474531 0.2128686 0.2627346 0.4010724 0.3367292 0.1983914 0.1088472 0.08042896 0.07989276 0.08847185 0.1270777 0.1297587 0.1426273 0.2053619 0.1930295 0.2825737 0.3142091 0.2482574 0.2873995 0.1914209 0.1040214 0.1024129 0.08847185 0.1351206 0.136193 0.1190348 0.1544236 0.2632708 0.2718499 0.1495979 0.07828418 0.0772118 0.07828418 0.08042896 0.04932976 0.0691689 0.07828418 0.07882038 0.07774799 0.07774799 0.07774799 0.07882038 0.08686327 0.09008043 0.07882038 0.07828418 0.07882038 0.07935657 0.07828418 0.07828418 0.07882038 0.07774799 0.07989276 0.08364611 0.08364611 0.09168901 0.08310992 0.07882038 0.0772118 0.08150134 0.08793566 0.08632708 0.08096515 0.07828418 0.07613941 0.07613941 0.07882038 0.07774799 0.07613941 0.0772118 0.07828418 0.07613941 0.07774799 0.07828418 0.07989276 0.07613941 0.07828418 0.07613941 0.0772118 0.07882038 0.08364611 0.0847185 0.07828418 0.08203753 0.08739946 0.08257373 0.08150134 0.08150134 0.07774799 0.0772118 0.07613941 0.0772118 0.07774799 0.07774799 0.0772118 0.08096515 0.0772118 0.07828418 0.07774799 0.07560322 0.07613941 0.07774799 0.08364611 0.07613941 0.07613941 0.07613941 0.07560322 0.07131367 0.07238606 0.07613941 0.07989276 0.07560322 0.07613941 0.07506702 0.07613941 0.07774799 0.07828418 0.0772118 0.07613941 0.07613941 0.07560322 0.07613941 0.07613941 0.07613941 0.07613941 0.07613941 0.0772118 0.07613941 0.07613941 0.0772118 0.07613941 0.07828418 0.08042896 0.08418231 0.08686327 0.08364611 0.08632708 0.08847185 0.08847185 0.08418231 0.08203753 0.08096515 0.07560322 0.07774799 0.08364611 0.08686327 0.08579089 0.08257373 0.0772118 0.0772118 0.07613941 0.0772118 0.07613941 0.08096515 0.07935657 0.07828418 0.07935657 0.07989276 0.08042896 0.08042896 0.08257373 0.07774799 0.07774799 0.08257373 0.08364611 0.08310992 0.08364611 0.08632708 0.08525469 0.08525469 0.08257373 0.07935657 0.08042896 0.07935657 0.08042896 0.07935657 0.07989276 0.07989276 0.07935657 0.07989276 0.08042896 0.07828418 0.07989276 0.08042896 0.08042896 0.08150134 0.08150134 0.08096515 0.08150134 0.08203753 0.08579089 0.09490617 0.09008043 0.08954424 0.08579089 0.09061662 0.09115282 0.1008043 0.09758713 0.1072386 0.122252 0.1447721 0.1892761 0.1506702 0.09544236 0.09705094 0.09008043 0.09115282 0.1099196 0.09597855 0.09544236 0.08900804 0.08525469 0.0847185 0.08310992 0.08579089 0.09597855 0.08525469 0.09490617 0.0922252 0.09008043 0.0927614 0.09651475 0.09597855 0.09383378 0.09436997 0.08847185 0.08632708 0.09705094 0.09544236 0.09758713 0.1072386 0.1099196 0.1351206 0.1302949 0.09651475 0.1442359 0.2273458 0.1919571 0.2241287 0.2134048
-9999 -9999 -9999 -9999 -9999 -9999 -9999 -9999 -9999 -9999 -9999 -9999 -9999 -9999 -9999 -9999 -9999 -9999 -9999 -9999 -9999 -9999 -9999 -9999 -9999 -9999 -9999 -9999 -9999 -9999 -9999 -9999 -9999 -9999 -9999 -9999 -9999 -9999 -9999 -9999 0.2766756 0.230563 0.2809651 0.2246649 0.1297587 0.1731904 0.197319 0.1710456 0.1506702 0.1286863 0.1340483 0.1335121 0.108311 0.1217158 0.1678284 0.1045576 0.10563 0.09061662 0.1002681 0.08203753 0.07184987 0.07935657 0.09383378 0.1002681 0.1034853 0.1088472 0.1050938 0.07882038 0.1227882 0.1619303 0.1844504 0.1372654 0.1174263 0.1286863 0.1447721 0.1447721 0.1099196 0.1067024 0.1093834 0.1045576 0.09544236 0.1018767 0.1040214 0.1002681 0.08793566 0.10563 0.1067024 0.0997319 0.08257373 0.08900804 0.1726542 0.1345845 0.2064343 0.2745308 0.2530831 0.2187667 0.2380697 0.124933 0.1453083 0.1345845 0.1319035 0.1329759 0.1034853 0.1458445 0.2396783 0.1447721 0.1281501 0.1099196 0.1404826 0.1908847 0.2477212 0.1608579 0.2235925 0.1758713 0.1168901 0.1211796 0.1410188 0.1029491 0.1072386 0.09383378 0.1115282 0.08900804 0.1018767 0.1045576 0.1463807 0.1168901 0.09919571 0.09008043 0.1302949 0.1882038 0.2477212 0.1420912 0.1077748 0.1115282 0.1286863 0.1865952 0.2423593 0.2487936 0.1512064 0.1345845 0.09490617 0.1061662 0.10563 0.1029491 0.1142091 0.07774799 0.08150134 0.08257373 0.08793566 0.1839142 0.2359249 0.3168901 0.3490617 0.4300268 0.2509383 0.1619303 0.1152815 0.08847185 0.09115282 0.1887399 0.2225201 0.1619303 0.1254692 0.1286863 0.2294906 0.2134048 0.2579089 0.4294906 0.3710456 0.372118 0.322252 0.1581769 0.1828418 0.2466488 0.1978552 0.1565684 0.1404826 0.1908847 0.2857909 0.1367292 0.09115282 0.07613941 0.0772118 0.08096515 0.07774799 0.07882038 0.0616622 0.07935657 0.08310992 0.07828418 0.0772118 0.07882038 0.07935657 0.07935657 0.0922252 0.08150134 0.07774799 0.0772118 0.07828418 0.07882038 0.07828418 0.07882038 0.07935657 0.0772118 0.07828418 0.07935657 0.07989276 0.08579089 0.08150134 0.07560322 0.08257373 0.09115282 0.0847185 0.08525469 0.07882038 0.07613941 0.07613941 0.07774799 0.07613941 0.07613941 0.07774799 0.07828418 0.07613941 0.07774799 0.07774799 0.07774799 0.07774799 0.0772118 0.07613941 0.07774799 0.07613941 0.08150134 0.08310992 0.08096515 0.07613941 0.07935657 0.07882038 0.07882038 0.07774799 0.07935657 0.07882038 0.0772118 0.07613941 0.07774799 0.07774799 0.07774799 0.08096515 0.08257373 0.0772118 0.07882038 0.07399464 0.08686327 0.08310992 0.08418231 0.07989276 0.07613941 0.07613941 0.07613941 0.07560322 0.07453083 0.07077748 0.07345845 0.07613941 0.07613941 0.07506702 0.07613941 0.0772118 0.07613941 0.07560322 0.07613941 0.07613941 0.07613941 0.07613941 0.07560322 0.07506702 0.07613941 0.07613941 0.07613941 0.07613941 0.07613941 0.07613941 0.0772118 0.07935657 0.08150134 0.08418231 0.08900804 0.09061662 0.0927614 0.08954424 0.08954424 0.08793566 0.08310992 0.08096515 0.08257373 0.07882038 0.07882038 0.08150134 0.08847185 0.07882038 0.0772118 0.07774799 0.07613941 0.07774799 0.07774799 0.07935657 0.08096515 0.0772118 0.07828418 0.0772118 0.0772118 0.07989276 0.08203753 0.08203753 0.07935657 0.07935657 0.08310992 0.08525469 0.08686327 0.08257373 0.08096515 0.08150134 0.07935657 0.07935657 0.07989276 0.08042896 0.08257373 0.08257373 0.08096515 0.07989276 0.07935657 0.07882038 0.08042896 0.08150134 0.08310992 0.08310992 0.08364611 0.09061662 0.08150134 0.08257373 0.08310992 0.08954424 0.1050938 0.08525469 0.09008043 0.09008043 0.08686327 0.09008043 0.09115282 0.09812333 0.1072386 0.1142091 0.1302949 0.1715818 0.2477212 0.1506702 0.1469169 0.1040214 0.09597855 0.1013405 0.08954424 0.1008043 0.09490617 0.08954424 0.0847185 0.0847185 0.08364611 0.08793566 0.1190348 0.1308311 0.09168901 0.1050938 0.1206434 0.1152815 0.1050938 0.09812333 0.09651475 0.09008043 0.08793566 0.09008043 0.09490617 0.09544236 0.124933 0.138874 0.2144772 0.2739946 0.1399464 0.09705094 0.09383378 0.1329759 0.1774799 0.1747989 0.1597855
-9999 -9999 -9999 -9999 -9999 -9999 -9999 -9999 -9999 -9999 -9999 -9999 -9999 -9999 -9999 -9999 -9999 -9999 -9999 -9999 -9999 -9999 -9999 -9999 -9999 -9999 -9999 -9999 -9999 -9999 -9999 -9999 -9999 -9999 -9999 -9999 -9999 -9999 -9999 -9999 0.4085791 0.3260054 0.2230563 0.1544236 0.1806971 0.1769437 0.2504022 0.2037534 0.1469169 0.122252 0.124933 0.1168901 0.09865952 0.09597855 0.1490617 0.1072386 0.10563 0.1179625 0.1158177 0.08632708 0.1008043 0.1013405 0.1050938 0.1152815 0.1292225 0.124933 0.1104558 0.07774799 0.08525469 0.2 0.1560322 0.141555 0.1099196 0.1474531 0.2080429 0.1935657 0.1485255 0.1571046 0.1404826 0.1115282 0.09651475 0.08632708 0.09865952 0.08632708 0.09758713 0.1018767 0.1008043 0.1018767 0.08310992 0.1485255 0.1008043 0.1887399 0.2235925 0.2042895 0.2134048 0.1747989 0.1597855 0.1184987 0.1394102 0.1265416 0.1238606 0.1270777 0.09383378 0.1292225 0.1828418 0.166756 0.1024129 0.1034853 0.1372654 0.1378016 0.1367292 0.1957105 0.1935657 0.136193 0.1243968 0.1474531 0.1040214 0.09812333 0.1254692 0.08847185 0.09329759 0.09919571 0.1034853 0.1313673 0.1308311 0.108311 0.1147453 0.1683646 0.2552279 0.2225201 0.1624665 0.1099196 0.1008043 0.10563 0.1876676 0.2804289 0.3485255 0.230563 0.2080429 0.2428954 0.1308311 0.1351206 0.1297587 0.1270777 0.1404826 0.1372654 0.09490617 0.1672922 0.2134048 0.1737265 0.2005362 0.2359249 0.3753351 0.4037533 0.1796247 0.1013405 0.08686327 0.08042896 0.1871314 0.2906166 0.2391421 0.1882038 0.09436997 0.1678284 0.2171582 0.3217158 0.4016086 0.4616622 0.5099196 0.477748 0.4359249 0.2820375 0.2809651 0.2268097 0.1849866 0.1796247 0.2380697 0.3061662 0.1265416 0.08310992 0.0772118 0.0772118 0.07774799 0.0772118 0.0772118 0.08042896 0.06863271 0.07506702 0.07935657 0.07774799 0.0772118 0.08042896 0.07774799 0.08257373 0.08900804 0.08579089 0.07774799 0.07613941 0.07613941 0.07882038 0.07774799 0.07774799 0.07774799 0.07828418 0.07882038 0.07774799 0.08096515 0.08847185 0.07828418 0.07613941 0.0772118 0.08150134 0.08150134 0.08150134 0.07935657 0.07613941 0.0772118 0.07774799 0.0772118 0.07613941 0.07882038 0.0772118 0.0772118 0.07613941 0.07828418 0.07613941 0.0772118 0.07613941 0.07613941 0.0772118 0.07882038 0.07828418 0.07613941 0.07774799 0.0772118 0.07613941 0.07613941 0.0772118 0.0772118 0.07774799 0.07774799 0.07613941 0.07613941 0.07613941 0.07613941 0.07613941 0.08042896 0.07989276 0.08364611 0.08257373 0.07292225 0.07989276 0.08042896 0.08257373 0.08150134 0.07613941 0.07560322 0.07613941 0.07560322 0.07560322 0.07453083 0.07131367 0.07613941 0.07613941 0.07560322 0.07560322 0.07613941 0.07560322 0.07613941 0.07613941 0.07613941 0.0772118 0.07613941 0.07613941 0.07613941 0.0772118 0.07613941 0.07560322 0.07613941 0.07613941 0.0772118 0.07774799 0.07560322 0.08042896 0.07989276 0.08364611 0.09490617 0.1227882 0.1152815 0.0922252 0.08793566 0.08525469 0.08632708 0.0847185 0.07882038 0.07613941 0.07935657 0.07989276 0.08150134 0.0772118 0.07774799 0.07613941 0.08364611 0.08203753 0.08310992 0.0772118 0.0772118 0.0772118 0.07989276 0.07774799 0.07989276 0.08364611 0.0847185 0.07882038 0.07989276 0.08150134 0.07989276 0.08203753 0.08150134 0.08150134 0.07989276 0.07989276 0.07989276 0.07935657 0.07935657 0.07828418 0.08042896 0.07935657 0.07989276 0.07828418 0.08096515 0.07989276 0.08203753 0.0847185 0.09008043 0.09544236 0.08257373 0.08418231 0.08310992 0.08418231 0.08364611 0.08364611 0.09651475 0.08793566 0.08954424 0.09008043 0.09436997 0.09705094 0.09705094 0.1067024 0.1072386 0.1206434 0.1399464 0.1742627 0.1276139 0.1115282 0.1045576 0.09919571 0.09008043 0.1126005 0.08525469 0.09168901 0.09758713 0.09168901 0.08418231 0.08364611 0.09008043 0.1120643 0.1710456 0.1040214 0.1024129 0.1217158 0.09919571 0.1002681 0.09919571 0.1002681 0.09597855 0.08900804 0.08686327 0.08900804 0.09061662 0.1469169 0.1672922 0.2890081 0.1790885 0.1335121 0.1034853 0.1008043 0.09705094 0.1040214 0.1292225 0.1099196
